ply
format ascii 1.0
element face 0
property list uchar int vertex_indices
element vertex 500
property float x
property float y
property float z
property uchar diffuse_red
property uchar diffuse_green
property uchar diffuse_blue
end_header
1.897159e+00 -1.132588e+00 -6.785403e+00 203 182 70
2.174995e+00 -8.670328e-01 -6.233383e+00 221 195 83
2.174995e+00 -8.670328e-01 -6.233383e+00 221 195 83
2.194571e+00 -8.570408e-01 -6.195544e+00 177 153 51
2.194832e+00 -7.553776e-01 -6.211901e+00 214 189 76
2.183602e+00 -7.948402e-01 -6.217440e+00 215 192 85
2.156636e+00 -9.631949e-01 -6.277228e+00 212 189 70
2.203539e+00 -6.788020e-01 -6.181940e+00 215 190 73
1.901413e+00 -1.093862e+00 -6.794165e+00 41 28 0
1.901413e+00 -1.093862e+00 -6.794165e+00 41 28 0
2.522121e+00 -3.541161e-01 -5.378160e+00 234 192 195
2.514014e+00 -4.039816e-01 -5.394221e+00 240 179 181
-8.771500e-01 5.145940e-01 -4.572369e+00 22 27 46
-8.757138e-01 5.150551e-01 -4.572630e+00 22 27 46
-8.757138e-01 5.150551e-01 -4.572630e+00 22 27 46
-8.429305e-01 -2.298282e-01 -5.053912e+00 23 24 28
8.724415e-01 5.819784e-02 -5.665580e+00 210 177 196
6.986098e-02 3.479116e-01 -5.537165e+00 144 19 27
-9.219664e-01 6.285601e-01 -4.595878e+00 201 211 244
1.036391e+00 -3.696057e-03 -5.489372e+00 173 109 126
1.005227e+00 5.661099e-01 -5.521902e+00 213 193 208
1.005227e+00 5.661099e-01 -5.521902e+00 213 193 208
3.737702e-01 4.892112e-01 -5.403489e+00 73 2 3
-8.606517e-01 3.885915e-01 -4.627320e+00 190 201 238
4.660715e-01 9.875860e-01 -5.568220e+00 163 18 29
2.328122e+00 -1.121415e+00 -5.879181e+00 202 197 105
1.367530e-02 4.468332e-01 -5.503709e+00 224 55 94
1.367530e-02 4.468332e-01 -5.503709e+00 224 55 94
8.321995e-01 5.591816e-01 -5.522094e+00 95 0 2
-5.671135e-01 4.414751e-01 -4.646994e+00 108 54 70
1.698667e-01 6.456707e-01 -5.420308e+00 218 203 221
4.103680e-01 1.078594e+00 -5.576094e+00 171 150 172
2.509173e+00 -4.667638e-01 -5.377877e+00 226 182 185
2.509173e+00 -4.667638e-01 -5.377877e+00 226 182 185
9.631409e-01 1.605383e-01 -5.722906e+00 99 3 5
-4.822100e-01 3.112328e-01 -4.595369e+00 156 98 112
1.044178e+00 6.540914e-01 -5.520396e+00 45 10 7
1.300729e-01 5.736819e-01 -5.403504e+00 82 11 26
-5.825654e-01 4.841567e-01 -4.636132e+00 235 181 194
-9.650535e-01 4.647730e-01 -4.599299e+00 183 230 255
-8.282341e-01 7.483192e-01 -4.530818e+00 225 165 176
9.591329e-01 -1.834777e-02 -5.620165e+00 66 13 22
1.240224e+00 9.565455e-02 -5.519472e+00 95 35 39
1.117749e+00 1.022691e-01 -5.574766e+00 172 101 113
7.231343e-01 1.688905e-01 -5.685477e+00 111 13 20
2.078085e+00 3.408894e-01 -6.441071e+00 147 111 51
9.145159e-01 6.031350e-01 -5.517923e+00 104 11 16
-7.982753e-02 6.058372e-01 -5.416255e+00 106 9 21
-8.878943e-01 4.828512e-01 -4.587739e+00 255 254 254
-8.976633e-01 7.603335e-01 -4.539915e+00 224 166 176
-9.317765e-01 7.572066e-01 -4.541548e+00 227 167 179
-1.037555e+00 7.571476e-01 -4.554853e+00 133 74 96
4.405389e-01 1.127201e+00 -5.568608e+00 161 21 32
1.581853e+00 1.272822e+00 -5.304248e+00 69 31 28
1.581853e+00 1.272822e+00 -5.304248e+00 69 31 28
2.720923e+00 -2.873466e+00 -9.905456e+00 59 47 61
2.144978e+00 -8.478887e-01 -6.314885e+00 216 192 86
9.191164e-01 -3.013158e-02 -5.658058e+00 173 134 153
2.120447e+00 5.964719e-01 -6.307526e+00 111 64 25
-9.900515e-01 4.359449e-01 -4.584598e+00 168 157 198
-6.267511e-01 6.170549e-01 -4.566121e+00 170 104 126
-9.217314e-01 7.270657e-01 -4.534385e+00 174 107 127
-9.217314e-01 7.270657e-01 -4.534385e+00 174 107 127
1.700255e+00 1.396486e+00 -5.452915e+00 69 30 30
2.547792e+00 -2.928002e+00 -1.032328e+01 103 99 121
2.298199e+00 -3.039423e+00 -1.111346e+01 108 101 118
1.780034e+00 -3.424063e+00 -1.265866e+01 97 90 106
2.637731e+00 -2.596345e+00 -1.013340e+01 119 113 129
2.564541e+00 -2.613466e+00 -1.028088e+01 67 55 65
2.413133e+00 -2.580831e+00 -1.068858e+01 64 53 67
2.413133e+00 -2.580831e+00 -1.068858e+01 64 53 67
2.325587e+00 -2.377101e+00 -1.102606e+01 73 53 61
2.278473e+00 -2.383900e+00 -1.108702e+01 124 120 134
2.278473e+00 -2.383900e+00 -1.108702e+01 124 120 134
2.323503e+00 -2.259815e+00 -1.091236e+01 121 117 134
2.495901e+00 -5.719467e-01 -5.450290e+00 240 183 194
2.514198e+00 -5.375300e-01 -5.389455e+00 243 196 214
2.521675e+00 -4.537543e-01 -5.366358e+00 234 171 187
2.199518e+00 -5.845053e-01 -6.187362e+00 177 147 41
2.523446e+00 -4.006578e-01 -5.333426e+00 237 187 201
9.661224e-01 2.008765e-02 -5.621295e+00 171 124 141
-5.093537e-01 -2.251591e-02 -4.736534e+00 226 178 187
-4.605013e-01 9.852223e-02 -4.653943e+00 157 101 112
-4.605013e-01 9.852223e-02 -4.653943e+00 157 101 112
-9.028071e-01 9.237434e-02 -4.620124e+00 215 151 168
-4.676452e-01 2.568461e-01 -4.607096e+00 158 99 111
1.180313e-01 6.022391e-01 -5.387168e+00 233 218 229
1.461176e-01 6.213637e-01 -5.386898e+00 229 219 231
-8.736532e-01 6.424615e-01 -4.569189e+00 241 217 230
3.845764e-01 9.375331e-01 -5.556440e+00 203 132 150
-8.789043e-01 7.305339e-01 -4.536351e+00 178 107 123
-9.592196e-01 7.418449e-01 -4.535708e+00 232 172 179
4.411867e-01 1.049398e+00 -5.567232e+00 151 23 55
2.755646e+00 -3.313653e+00 -9.825095e+00 111 102 120
2.446575e+00 -3.630952e+00 -1.072843e+01 100 95 113
2.542236e+00 -3.473926e+00 -1.049038e+01 114 111 129
2.559066e+00 -3.138912e+00 -1.040126e+01 117 106 126
2.458299e+00 -2.918072e+00 -1.062654e+01 57 46 60
2.103706e+00 -2.223894e+00 -1.150298e+01 107 92 111
1.911766e+00 -2.393387e+00 -1.218427e+01 97 87 99
2.520881e+00 -6.703585e-01 -5.377210e+00 247 138 75
2.186317e+00 -7.954965e-01 -6.222735e+00 215 192 85
2.522980e+00 -4.952129e-01 -5.373938e+00 249 179 194
2.505800e+00 -4.816221e-01 -5.412392e+00 234 189 194
-9.787791e-02 5.769138e-01 -5.382926e+00 209 176 193
1.563463e+00 1.057983e+00 -5.215083e+00 159 96 109
5.635138e-01 9.872852e-01 -5.579656e+00 212 136 155
-1.707885e-02 5.193949e-01 -5.470435e+00 243 238 244
1.974161e+00 8.208599e-01 -6.269757e+00 193 133 142
2.093374e+00 -6.176170e-01 -6.349055e+00 219 186 70
-6.729388e-02 3.036649e-01 -5.560415e+00 235 234 243
9.163764e-03 1.488392e+00 -5.893111e+00 161 16 26
-4.972297e-02 1.890479e-01 -5.727346e+00 198 31 51
1.327784e+00 2.085954e-01 -5.567402e+00 188 119 130
1.416203e+00 3.264554e-01 -5.714216e+00 65 8 8
1.259388e+00 1.232040e+00 -5.379848e+00 184 137 151
-3.004292e+00 3.170912e+00 -1.219020e+01 24 22 27
-3.004292e+00 3.170912e+00 -1.219020e+01 24 22 27
-1.269431e+00 -2.919554e+00 -1.263367e+01 63 59 70
-1.346517e-01 2.311920e-01 -5.625072e+00 231 213 229
-1.115170e-01 6.927323e-01 -5.444971e+00 193 32 49
2.329088e+00 -1.122483e+00 -5.881469e+00 202 197 105
1.173255e+00 1.248616e-01 -5.562180e+00 189 123 137
2.853534e-01 5.114850e-01 -5.415890e+00 230 208 219
-9.684875e-02 5.595013e-01 -5.488829e+00 221 208 222
-1.079013e-01 6.879398e-01 -5.408619e+00 195 34 51
-4.094771e-02 7.607643e-01 -5.478539e+00 90 1 7
1.187457e+00 1.302287e+00 -5.972072e+00 157 20 30
1.559614e+00 1.420349e+00 -5.418212e+00 168 118 129
8.404310e-01 -4.996843e+00 -1.484916e+01 42 42 51
2.404129e+00 -3.661468e+00 -1.090999e+01 37 33 48
2.404129e+00 -3.661468e+00 -1.090999e+01 37 33 48
3.009842e+00 -2.928178e+00 -9.135055e+00 60 49 64
2.418215e+00 -2.036549e+00 -8.230628e+00 188 174 148
4.870481e-01 -3.267989e+00 -1.317975e+01 105 81 64
2.529893e+00 -3.457938e-01 -5.344424e+00 224 181 193
2.529893e+00 -3.457938e-01 -5.344424e+00 224 181 193
6.006098e-01 1.684465e+00 -5.868501e+00 68 1 1
2.685071e+00 -3.209307e+00 -1.002593e+01 53 42 51
2.680898e+00 -3.203035e+00 -1.000884e+01 53 42 51
1.754138e+00 -3.706363e+00 -1.260407e+01 10 10 12
1.768005e+00 -3.735670e+00 -1.269652e+01 10 10 12
2.306916e+00 -1.937610e+00 -8.533031e+00 178 170 140
1.536409e+00 -2.612489e+00 -1.257672e+01 110 83 65
1.400532e+00 -2.555749e+00 -1.256196e+01 18 29 45
2.056417e+00 -2.168492e+00 -1.163276e+01 54 40 42
2.495392e+00 -5.766846e-01 -5.386036e+00 225 192 209
8.310599e-01 1.279108e-01 -5.753342e+00 138 31 47
5.632331e-01 1.308585e-01 -5.695814e+00 211 42 80
-9.186838e-01 5.863308e-01 -4.572806e+00 179 225 255
-9.746702e-01 7.772517e-01 -4.538315e+00 152 97 120
1.701605e+00 1.396073e+00 -5.456558e+00 69 30 30
2.344095e+00 -3.923209e+00 -1.102173e+01 84 79 97
2.548049e+00 -3.324448e+00 -1.049502e+01 98 89 106
2.867928e+00 -2.873065e+00 -9.428002e+00 56 43 54
2.523638e+00 -2.988358e+00 -1.049381e+01 59 52 64
2.523638e+00 -2.988358e+00 -1.049381e+01 59 52 64
1.595440e+00 -3.265109e+00 -1.322690e+01 81 74 84
1.657950e+00 -2.792050e+00 -1.277497e+01 47 38 45
1.976541e+00 -2.332664e+00 -1.182348e+01 52 42 43
1.901517e+00 -1.135522e+00 -6.800453e+00 203 182 70
2.500070e+00 -5.793619e-01 -5.394866e+00 228 196 213
5.505874e-01 -2.668719e-01 -5.678355e+00 123 6 14
5.505874e-01 -2.668719e-01 -5.678355e+00 123 6 14
2.131055e+00 -2.640689e-01 -6.165730e+00 114 69 10
-8.724432e-01 -1.820650e-01 -5.005155e+00 35 44 92
1.202584e+00 1.895263e-01 -5.603870e+00 173 95 107
4.916531e-01 2.270387e-01 -5.676205e+00 124 4 14
2.103941e+00 2.859314e-01 -6.423093e+00 84 49 7
-3.758638e-01 4.232933e-01 -4.641852e+00 207 155 168
2.168386e+00 6.212495e-01 -6.298924e+00 176 139 90
-6.004944e-01 5.679587e-01 -4.587407e+00 189 126 143
-6.004944e-01 5.679587e-01 -4.587407e+00 189 126 143
-7.645239e-01 5.798872e-01 -4.609598e+00 247 228 240
3.038559e-01 6.860366e-01 -5.333371e+00 219 197 209
4.500227e-01 7.035030e-01 -5.391934e+00 246 224 228
4.500227e-01 7.035030e-01 -5.391934e+00 246 224 228
-6.264781e-01 6.174080e-01 -4.567021e+00 170 104 126
6.709461e-03 7.975074e-01 -5.512612e+00 175 25 37
-7.114922e-01 6.782245e-01 -4.545831e+00 233 178 193
-1.015959e+00 7.302271e-01 -4.551617e+00 229 167 180
4.345230e-01 1.127711e+00 -5.559016e+00 155 24 37
1.220893e+00 1.107642e+00 -5.198671e+00 184 132 144
2.824625e+00 -3.140366e+00 -9.618715e+00 52 45 58
2.446782e+00 -3.419826e+00 -1.069257e+01 105 97 118
2.838495e+00 -2.999802e+00 -9.611132e+00 119 111 128
2.178857e+00 -3.521145e+00 -1.139780e+01 85 77 96
2.125359e+00 -3.473881e+00 -1.157740e+01 39 35 49
2.797551e+00 -2.767885e+00 -9.683938e+00 57 41 47
2.797551e+00 -2.767885e+00 -9.683938e+00 57 41 47
2.411002e+00 -2.895231e+00 -1.083690e+01 57 46 55
1.645623e+00 -3.471183e+00 -1.299447e+01 88 85 103
2.457566e+00 -2.139042e+00 -8.184626e+00 187 178 143
1.704325e+00 -3.091438e+00 -1.278565e+01 54 48 60
2.307126e+00 -2.011190e+00 -8.477244e+00 113 98 80
2.112349e+00 -2.412790e+00 -1.158622e+01 63 47 56
1.962001e+00 -2.253951e+00 -1.202352e+01 61 47 49
1.798640e+00 -2.154136e+00 -1.243100e+01 62 47 49
2.192973e+00 -8.408854e-01 -6.261665e+00 214 191 78
2.500612e+00 -6.042641e-01 -5.463647e+00 221 70 104
2.051185e+00 -5.381122e-01 -6.503259e+00 228 191 78
2.240927e+00 -4.507081e-01 -6.119027e+00 229 196 57
2.240927e+00 -4.507081e-01 -6.119027e+00 229 196 57
8.420132e-01 -3.504831e-01 -5.477468e+00 170 47 61
2.189556e+00 -3.393505e-01 -6.173057e+00 98 62 2
2.162619e+00 -3.007408e-01 -6.175249e+00 121 76 14
2.538227e+00 -2.299491e-01 -5.335493e+00 240 192 195
-4.990882e-01 1.904024e-02 -4.693541e+00 218 170 181
-4.350966e-01 1.907125e-01 -4.641880e+00 225 164 172
2.124655e+00 3.004379e-01 -6.375465e+00 176 139 48
-3.425451e-01 4.693136e-01 -4.710686e+00 220 191 199
-1.010754e+00 4.787275e-01 -4.602643e+00 173 160 196
3.854289e-01 6.453322e-01 -5.404805e+00 243 214 219
1.682235e-01 6.925178e-01 -5.433774e+00 71 6 13
-9.593279e-01 6.183665e-01 -4.569836e+00 242 226 244
-8.840433e-01 7.049416e-01 -4.538328e+00 228 165 173
-9.387771e-01 7.886032e-01 -4.551114e+00 157 100 122
9.384725e-02 1.480485e+00 -5.849681e+00 108 2 1
-3.881761e+00 3.945026e+00 -1.179985e+01 147 93 87
2.215626e+00 -3.956324e+00 -1.135202e+01 51 45 59
2.255895e+00 -3.899438e+00 -1.123401e+01 89 87 105
9.942852e-01 -5.122252e+00 -1.476655e+01 49 48 57
2.586735e+00 -3.549661e+00 -1.037981e+01 111 107 131
2.244786e+00 -3.783374e+00 -1.119679e+01 88 85 102
2.699394e+00 -3.363170e+00 -1.004801e+01 59 54 71
3.002897e+00 -3.025755e+00 -9.167250e+00 56 47 63
2.396217e+00 -3.499420e+00 -1.090181e+01 100 96 119
2.320316e+00 -3.510005e+00 -1.104058e+01 56 46 58
2.372117e+00 -3.299145e+00 -1.083991e+01 53 46 61
2.528396e+00 -3.166278e+00 -1.046762e+01 68 58 74
2.161269e+00 -3.429597e+00 -1.150267e+01 88 81 97
1.637561e+00 -3.877324e+00 -1.303123e+01 36 26 32
2.515354e+00 -3.092576e+00 -1.052758e+01 101 93 110
1.982011e+00 -3.511300e+00 -1.202412e+01 52 47 68
1.981360e+00 -3.507448e+00 -1.201383e+01 52 47 68
2.667018e+00 -2.829439e+00 -1.002321e+01 46 34 46
2.104906e+00 -3.298014e+00 -1.174270e+01 90 78 86
2.104906e+00 -3.298014e+00 -1.174270e+01 90 78 86
1.981424e+00 -3.164161e+00 -1.198281e+01 57 49 60
1.979365e+00 -3.082889e+00 -1.194206e+01 89 85 99
1.979365e+00 -3.082889e+00 -1.194206e+01 89 85 99
2.047403e+00 -2.901424e+00 -1.178692e+01 66 59 74
2.047403e+00 -2.901424e+00 -1.178692e+01 66 59 74
2.500901e+00 -2.554123e+00 -1.047714e+01 106 99 115
2.500901e+00 -2.554123e+00 -1.047714e+01 106 99 115
2.413581e+00 -2.580652e+00 -1.069062e+01 64 53 67
1.265890e+00 -3.053761e+00 -1.409362e+01 74 67 78
2.327510e+00 -1.118380e+00 -5.877391e+00 197 196 106
2.332969e+00 -2.051368e+00 -1.093868e+01 71 60 79
2.187787e+00 -2.033546e+00 -1.118005e+01 91 79 87
2.187787e+00 -2.033546e+00 -1.118005e+01 91 79 87
2.021332e+00 -2.052616e+00 -1.173328e+01 62 50 55
2.542909e+00 -2.857394e-01 -5.306085e+00 234 190 210
2.549246e+00 -1.909944e-01 -5.332295e+00 237 193 207
-7.635237e-01 4.598983e-01 -4.591126e+00 181 161 192
8.492970e-03 5.720875e-01 -5.384547e+00 194 171 186
-9.642794e-01 5.044189e-01 -4.576046e+00 147 198 227
8.464683e-02 5.866638e-01 -5.383338e+00 239 225 235
-8.351109e-01 6.320170e-01 -4.565692e+00 235 199 216
5.333724e-01 8.656693e-01 -5.535544e+00 204 160 177
-7.339715e-01 7.315607e-01 -4.546532e+00 146 87 107
3.851860e-01 9.381021e-01 -5.557124e+00 203 132 150
-8.397002e-01 8.071641e-01 -4.557390e+00 216 161 173
-3.874585e+00 3.484956e+00 -1.176710e+01 144 79 71
-5.269848e+00 3.528106e+00 -1.144826e+01 128 72 58
-5.269848e+00 3.528106e+00 -1.144826e+01 128 72 58
-5.419663e+00 3.515585e+00 -1.137052e+01 126 72 64
-5.419663e+00 3.515585e+00 -1.137052e+01 126 72 64
-3.283804e+00 3.665077e+00 -1.189781e+01 142 89 80
-3.283804e+00 3.665077e+00 -1.189781e+01 142 89 80
-4.846846e+00 3.721184e+00 -1.151189e+01 134 72 65
-4.795136e+00 3.801787e+00 -1.145950e+01 135 75 58
-3.475094e+00 3.939254e+00 -1.186703e+01 143 85 86
6.653477e-01 2.788194e-01 -5.517868e+00 210 33 57
6.653477e-01 2.788194e-01 -5.517868e+00 210 33 57
-7.806419e-01 5.589504e-01 -4.571804e+00 161 183 219
2.127359e+00 1.112926e+00 -5.934777e+00 212 176 116
7.730889e-01 7.957918e-02 -5.700984e+00 238 231 239
9.142431e-01 6.282236e-01 -5.521657e+00 147 17 25
-3.230847e+00 3.789127e+00 -1.484524e+01 28 25 33
-3.046804e+00 4.090601e+00 -1.691600e+01 96 85 103
2.485452e+00 1.827093e+00 -5.210732e+00 173 157 104
1.916568e+00 -1.023355e+00 -6.759260e+00 203 178 60
9.073925e-01 -6.813206e-02 -5.599743e+00 51 9 18
2.868597e-01 1.315166e-01 -5.594665e+00 203 42 84
6.574353e-01 1.969493e-01 -5.656929e+00 115 4 13
-5.679187e-01 3.979545e-01 -4.605327e+00 212 160 173
-7.857303e-01 5.087365e-01 -4.567142e+00 188 226 254
-9.230193e-01 6.439732e-01 -4.577039e+00 243 231 243
2.721446e+00 -2.873349e+00 -9.902960e+00 59 47 61
2.043296e+00 -2.298470e+00 -1.180179e+01 104 96 105
1.823157e+00 -1.787397e+00 -1.237414e+01 75 54 61
-8.438376e-01 -1.676521e-01 -5.029312e+00 251 253 255
8.430581e-01 1.172238e-02 -5.672325e+00 222 196 212
-8.666846e-01 4.174342e-01 -4.584630e+00 165 217 253
1.074945e+00 6.044587e-01 -5.465828e+00 101 6 12
-9.938135e-01 7.065358e-01 -4.538322e+00 173 111 132
5.540591e-01 9.482444e-01 -5.581373e+00 153 14 28
-7.742173e-01 9.243647e-01 -4.606516e+00 157 123 142
9.812804e-01 1.594775e+00 -5.726597e+00 140 25 35
2.948128e+00 -3.173429e+00 -9.293570e+00 123 117 137
2.948128e+00 -3.173429e+00 -9.293570e+00 123 117 137
2.729087e+00 -3.303137e+00 -9.960250e+00 117 111 132
2.563378e+00 -2.613042e+00 -1.027961e+01 67 55 65
2.331607e+00 -2.379635e+00 -1.103978e+01 73 53 61
2.190675e+00 -7.077993e-01 -6.227212e+00 162 136 39
2.151717e+00 -6.750452e-01 -6.302012e+00 164 169 118
2.231819e+00 -4.785903e-01 -6.115223e+00 225 194 63
2.231819e+00 -4.785903e-01 -6.115223e+00 225 194 63
1.412542e+00 2.157214e-01 -5.543118e+00 75 11 12
-4.903222e-01 2.574836e-01 -4.587246e+00 226 174 184
-8.240083e-01 3.839006e-01 -4.618856e+00 245 237 249
2.499617e+00 -3.480434e+00 -1.053104e+01 51 47 63
2.982125e+00 -3.007061e+00 -9.216177e+00 104 99 117
2.922847e+00 -3.011776e+00 -9.375921e+00 115 100 121
2.786070e+00 -3.103847e+00 -9.734411e+00 32 30 45
2.644155e+00 -3.184603e+00 -1.023338e+01 115 109 126
2.363093e+00 -3.298585e+00 -1.097475e+01 113 109 127
2.410468e+00 -2.824002e+00 -1.079309e+01 116 108 123
2.526677e+00 -2.459624e+00 -1.032716e+01 112 104 121
2.065775e+00 -2.019103e+00 -1.167414e+01 107 90 101
2.065775e+00 -2.019103e+00 -1.167414e+01 107 90 101
2.497030e+00 -5.530626e-01 -5.403022e+00 208 105 132
2.497030e+00 -5.530626e-01 -5.403022e+00 208 105 132
2.505920e+00 -5.050423e-01 -5.393937e+00 209 98 134
2.521044e+00 -4.286413e-01 -5.384355e+00 208 95 122
2.254046e+00 -4.359510e-01 -6.064478e+00 167 135 16
2.533293e+00 -2.065833e-01 -5.336741e+00 216 81 99
2.533293e+00 -2.065833e-01 -5.336741e+00 216 81 99
2.275208e+00 -1.774700e-02 -6.008509e+00 167 136 16
2.275208e+00 -1.774700e-02 -6.008509e+00 167 136 16
9.086420e-01 3.326360e-02 -5.621386e+00 223 194 208
2.468039e+00 9.045684e-02 -5.483687e+00 184 158 92
2.065096e-01 6.605184e-01 -5.389758e+00 187 157 176
-7.037372e-01 9.024118e-01 -4.617139e+00 132 93 111
-2.478090e+00 3.153975e+00 -1.203380e+01 91 86 95
-2.478090e+00 3.153975e+00 -1.203380e+01 91 86 95
2.088097e+00 5.108441e-01 -6.326756e+00 149 88 70
-4.277265e-01 -2.873779e-01 -5.317082e+00 158 131 133
5.006915e-01 1.303195e+00 -5.746422e+00 18 7 6
1.882866e+00 -1.112711e+00 -6.753595e+00 217 201 91
-4.505661e-01 -1.395297e-01 -5.004742e+00 248 206 217
1.333836e+00 1.275573e-01 -5.451587e+00 131 25 22
-8.862163e-01 2.039362e-01 -4.624589e+00 223 160 169
2.500849e-01 8.141861e-01 -5.527807e+00 231 42 72
1.410168e+00 1.308776e+00 -5.275643e+00 201 144 155
1.147107e+00 6.690709e-02 -5.434435e+00 134 59 62
9.788777e-01 6.486504e-02 -5.520040e+00 74 10 10
7.892310e-01 -2.261464e+00 -1.228668e+01 150 127 126
-7.563036e-01 3.089145e-01 -4.603597e+00 217 151 166
1.914090e+00 -1.039341e+00 -6.754064e+00 234 210 88
2.205613e+00 -6.135135e-01 -6.144665e+00 243 216 79
2.248466e+00 -5.131418e-01 -6.081921e+00 189 157 34
2.248466e+00 -5.131418e-01 -6.081921e+00 189 157 34
1.221822e+00 -3.195225e-01 -5.323048e+00 195 133 135
-1.018561e+00 2.672040e-01 -4.680954e+00 233 171 185
-4.984959e-01 3.471251e-01 -4.592454e+00 187 125 131
-5.364039e-01 4.134337e-01 -4.601339e+00 149 90 108
-8.879066e-01 7.943740e-01 -4.552210e+00 185 119 134
2.334773e+00 -2.269586e+00 -1.094891e+01 153 149 170
2.140583e+00 -8.063200e-01 -6.282647e+00 240 219 94
2.125791e+00 -8.172566e-01 -6.339791e+00 185 193 135
2.125791e+00 -8.172566e-01 -6.339791e+00 185 193 135
2.213509e+00 -7.275316e-01 -6.158610e+00 197 169 49
2.536305e+00 -3.417375e-01 -5.321278e+00 254 215 233
-8.911652e-01 2.423504e-01 -4.653247e+00 255 216 221
2.629087e+00 -3.028941e+00 -1.018300e+01 140 131 150
2.543615e+00 -2.664361e+00 -1.035049e+01 128 115 128
2.391534e+00 -2.788385e+00 -1.083662e+01 80 68 82
2.334468e+00 -2.780133e+00 -1.092230e+01 84 72 87
-1.231578e+00 -2.925152e+00 -1.321163e+01 85 46 56
2.194409e+00 -8.570794e-01 -6.195415e+00 200 173 44
2.157941e+00 -8.431104e-01 -6.263675e+00 196 170 45
1.969602e+00 -2.118283e+00 -1.193945e+01 74 49 49
2.227147e+00 -3.525948e-01 -6.105618e+00 206 172 32
-7.075899e-01 -1.987172e-01 -5.017456e+00 250 240 251
-9.333151e-01 -2.148625e-01 -5.038814e+00 155 201 235
-9.418885e-01 -1.681937e-01 -4.992384e+00 119 141 190
1.230473e+00 -8.924997e-02 -5.330688e+00 236 173 181
-4.644396e-01 -2.532699e-02 -4.757486e+00 255 209 215
9.001571e-01 1.405565e-01 -5.692195e+00 150 41 66
-6.815798e-01 3.842753e-01 -4.610678e+00 202 131 146
3.364861e-01 6.365435e-01 -5.370539e+00 153 104 124
3.511528e-01 6.610244e-01 -5.383020e+00 247 224 229
-1.063503e+00 8.063581e-01 -4.594064e+00 249 196 203
8.969420e-01 5.131972e-01 -5.471616e+00 215 196 204
1.923144e+00 -3.259004e+00 -1.227068e+01 53 44 53
2.580601e+00 -3.542968e+00 -1.035931e+01 111 107 131
2.321975e+00 -3.511950e+00 -1.104275e+01 56 46 58
4.841666e-01 1.087402e+00 -5.584851e+00 140 30 54
1.278661e-01 8.982463e-01 -5.564009e+00 238 44 79
1.639734e+00 2.920712e+00 -7.351141e+00 141 135 154
3.913251e-02 1.066906e+00 -5.659069e+00 103 1 3
-1.935057e+00 2.026972e+00 -1.172986e+01 121 100 115
-2.848729e+00 1.048974e+00 -1.261253e+01 116 95 104
1.300320e+00 1.043628e+00 -5.836864e+00 215 42 64
3.930952e-02 1.289157e+00 -5.771475e+00 181 26 39
2.517997e+00 -6.047407e-01 -5.359582e+00 255 65 99
1.223256e-01 5.711026e-01 -5.381792e+00 104 39 63
8.445359e-01 7.090768e-01 -5.569052e+00 234 44 79
4.124457e-01 8.789951e-01 -5.549313e+00 181 35 56
5.668656e-01 1.092810e+00 -5.589106e+00 188 28 41
5.989014e-01 1.684252e+00 -5.864417e+00 96 5 3
2.657984e+00 -3.384793e+00 -1.015028e+01 128 117 138
1.120507e+00 -2.924406e-01 -5.338271e+00 244 181 189
1.867700e-01 5.531996e-01 -5.387789e+00 150 99 104
1.519556e+00 1.274977e+00 -5.275389e+00 185 130 132
5.058193e-01 1.398828e+00 -5.824933e+00 179 29 36
-3.425085e-01 1.753844e+00 -9.608346e+00 6 6 4
6.452250e-01 1.671887e+00 -5.835179e+00 211 40 57
1.317926e+00 2.534094e+00 -8.017980e+00 19 14 17
1.672241e+00 -4.657628e+00 -1.308754e+01 92 88 103
2.106509e+00 -3.979406e+00 -1.172288e+01 117 113 129
2.057837e+00 -3.321527e+00 -1.182330e+01 74 62 78
2.057837e+00 -3.321527e+00 -1.182330e+01 74 62 78
2.209010e+00 -5.604135e-01 -6.144992e+00 246 219 83
-5.169185e-01 3.267795e-01 -4.586610e+00 247 197 208
4.550612e-01 8.689387e-01 -5.569452e+00 230 194 215
1.971577e-02 9.066420e-01 -5.598152e+00 150 9 13
-3.393134e-01 1.694996e+00 -9.633365e+00 72 59 60
-6.354020e-01 1.753914e+00 -1.020737e+01 14 12 15
1.619720e+00 2.432059e+00 -7.463206e+00 115 95 81
2.646530e+00 -3.428805e+00 -1.022089e+01 124 118 149
2.723561e+00 -3.290206e+00 -9.921073e+00 146 138 160
2.892150e+00 -3.074878e+00 -9.455639e+00 142 138 159
1.822330e+00 -4.313555e+00 -1.262773e+01 107 103 120
2.812473e+00 -3.098817e+00 -9.678700e+00 124 114 122
2.319334e+00 -3.266467e+00 -1.106457e+01 116 110 129
1.852533e+00 -3.208974e+00 -1.240510e+01 110 102 119
-9.122776e-01 3.084351e-01 -4.633090e+00 229 166 184
-5.377293e-01 4.424677e-01 -4.630953e+00 196 138 152
-6.854609e-01 6.872039e-01 -4.544348e+00 198 130 142
-9.573468e-01 7.241629e-01 -4.530233e+00 195 122 141
4.437187e-01 9.264556e-01 -5.564067e+00 234 150 171
5.737218e-01 1.072790e+00 -5.591177e+00 159 29 51
3.923669e-01 1.059485e+00 -5.574831e+00 243 209 229
4.350960e-01 1.074119e+00 -5.579806e+00 225 203 227
1.062498e-01 1.628507e+00 -5.882377e+00 127 2 0
2.530547e+00 -2.627164e-01 -5.310933e+00 227 157 174
2.530547e+00 -2.627164e-01 -5.310933e+00 227 157 174
2.601537e+00 -2.416780e-03 -5.286909e+00 219 176 191
2.585598e+00 -4.320858e-01 -5.272588e+00 222 87 50
2.556669e+00 -3.161489e-01 -5.273282e+00 213 37 57
2.565891e+00 -2.347583e-01 -5.246963e+00 215 38 58
2.535843e+00 -1.756070e-01 -5.274891e+00 220 180 190
2.513715e+00 -3.425788e-02 -5.294609e+00 214 39 52
2.573358e+00 1.447078e-01 -5.178330e+00 220 188 205
2.530366e+00 -5.255598e-01 -5.343354e+00 214 37 60
-3.073462e+00 -5.508573e-01 -1.495713e+01 103 100 125
-7.154560e-01 6.790055e-01 -4.537210e+00 220 166 180
2.828870e+00 -3.010421e+00 -9.696446e+00 87 79 92
2.148661e+00 -9.836984e-01 -6.205171e+00 175 149 39
2.188620e+00 -6.401126e-01 -6.214607e+00 162 134 36
2.224526e+00 -5.173718e-01 -6.123499e+00 213 182 65
2.573769e+00 -3.173017e-01 -5.195907e+00 218 37 51
-3.089527e+00 -5.815536e-01 -1.512427e+01 105 101 122
2.176384e+00 5.507742e-01 -6.241410e+00 135 83 24
-2.278476e+00 4.101605e-01 -1.232858e+01 30 22 27
-2.278476e+00 4.101605e-01 -1.232858e+01 30 22 27
4.067727e-01 1.144091e+00 -5.585826e+00 205 168 181
4.067727e-01 1.144091e+00 -5.585826e+00 205 168 181
9.677320e-01 1.644350e+00 -5.700931e+00 144 21 29
2.743226e+00 -3.529761e+00 -9.908640e+00 56 54 64
2.127506e+00 -9.235770e-01 -6.328399e+00 202 176 70
2.204901e+00 -7.749875e-01 -6.167083e+00 159 131 35
2.204901e+00 -7.749875e-01 -6.167083e+00 159 131 35
2.244464e+00 -4.748237e-01 -6.069092e+00 172 142 32
2.560152e+00 -5.897237e-02 -5.221537e+00 221 186 200
2.562592e+00 -1.272037e-02 -5.201423e+00 228 178 201
2.537361e+00 1.601971e-02 -5.275982e+00 229 167 175
2.537361e+00 1.601971e-02 -5.275982e+00 229 167 175
2.575343e+00 1.781674e-01 -5.155097e+00 208 42 65
2.588640e+00 2.758688e-01 -5.133827e+00 190 71 99
2.588640e+00 2.758688e-01 -5.133827e+00 190 71 99
-2.801622e+00 6.697232e-02 -1.326411e+01 34 25 28
-2.001126e+00 5.191526e-01 -1.190286e+01 41 29 37
-1.905142e+00 5.773711e-01 -1.175146e+01 39 29 37
-1.905142e+00 5.773711e-01 -1.175146e+01 39 29 37
-7.631841e-01 4.593734e-01 -4.585309e+00 166 140 175
-1.093680e+00 6.433151e-01 -4.558379e+00 177 111 130
3.555771e-01 9.230167e-01 -5.550360e+00 147 25 40
3.837755e-01 9.370865e-01 -5.555530e+00 183 112 129
5.585766e-01 1.018954e+00 -5.582870e+00 132 8 22
2.818633e+00 -2.926850e+00 -9.597535e+00 41 31 41
2.163487e+00 -9.029987e-01 -6.256479e+00 205 177 65
2.540577e+00 -2.835441e-01 -5.296225e+00 234 185 202
2.533528e+00 -1.884663e-01 -5.304390e+00 230 183 190
2.580587e+00 -3.762184e-02 -5.194118e+00 206 52 79
2.554550e+00 -3.080475e-02 -5.234000e+00 190 82 110
2.583430e+00 1.535714e-01 -5.144538e+00 233 168 187
2.587347e+00 1.979836e-01 -5.128498e+00 250 156 168
2.587347e+00 1.979836e-01 -5.128498e+00 250 156 168
4.322002e-02 4.378985e-02 -6.328786e-02 0 255 0
4.310592e-02 4.342830e-02 -1.132864e-01 255 255 0
-5.812635e-01 7.106993e-01 2.691894e-01 255 0 0
-5.785211e-01 7.080180e-01 2.193367e-01 255 255 0
-1.167035e+00 2.186498e-01 -3.984483e-01 0 255 0
-1.155689e+00 2.168925e-01 -4.471121e-01 255 255 0
-1.203926e+00 2.184514e+00 -2.155285e-01 255 0 0
-1.191377e+00 2.174286e+00 -2.628350e-01 255 255 0
