ply
format ascii 1.0
element face 0
property list uchar int vertex_indices
element vertex 391
property float x
property float y
property float z
property uchar diffuse_red
property uchar diffuse_green
property uchar diffuse_blue
end_header
1.920917e+00 -1.168235e+00 -6.820061e+00 203 182 70
2.211120e+00 -8.979096e-01 -6.260276e+00 221 195 83
2.211120e+00 -8.979096e-01 -6.260276e+00 221 195 83
2.230452e+00 -8.875731e-01 -6.219850e+00 177 153 51
2.231224e+00 -7.825518e-01 -6.236960e+00 214 189 76
2.221340e+00 -8.237858e-01 -6.246443e+00 215 192 85
2.189850e+00 -9.966156e-01 -6.302022e+00 212 189 70
2.239646e+00 -7.036975e-01 -6.205776e+00 215 190 73
1.925326e+00 -1.128254e+00 -6.828662e+00 41 28 0
1.925326e+00 -1.128254e+00 -6.828662e+00 41 28 0
2.575267e+00 -3.709004e-01 -5.388077e+00 234 192 195
2.566621e+00 -4.225934e-01 -5.404505e+00 240 179 181
-9.679389e-01 5.389908e-01 -4.572799e+00 22 27 46
-9.679389e-01 5.389908e-01 -4.572799e+00 22 27 46
-9.679389e-01 5.389908e-01 -4.572799e+00 22 27 46
-9.271766e-01 -2.400203e-01 -5.073416e+00 23 24 28
8.646457e-01 5.991875e-02 -5.681616e+00 210 177 196
3.177738e-02 3.629365e-01 -5.552847e+00 144 19 27
-1.012208e+00 6.564599e-01 -4.577503e+00 201 211 244
1.034496e+00 -4.841996e-03 -5.499309e+00 173 109 126
1.002717e+00 5.878542e-01 -5.532462e+00 213 193 208
1.002717e+00 5.878542e-01 -5.532462e+00 213 193 208
3.458426e-01 5.092478e-01 -5.416502e+00 73 2 3
-9.502062e-01 4.068651e-01 -4.629867e+00 190 201 238
4.431673e-01 1.027176e+00 -5.585624e+00 163 18 29
2.368676e+00 -1.162943e+00 -5.899470e+00 202 197 105
-2.838225e-02 4.655872e-01 -5.525035e+00 224 55 94
-2.838225e-02 4.655872e-01 -5.525035e+00 224 55 94
8.230108e-01 5.810068e-01 -5.534008e+00 95 0 2
-6.424655e-01 4.618776e-01 -4.645137e+00 108 54 70
1.338917e-01 6.725739e-01 -5.436556e+00 218 203 221
3.832265e-01 1.120158e+00 -5.585720e+00 171 150 172
2.561597e+00 -4.878275e-01 -5.388041e+00 226 182 185
2.561597e+00 -4.878275e-01 -5.388041e+00 226 182 185
9.589636e-01 1.662165e-01 -5.739470e+00 99 3 5
-5.545046e-01 3.249503e-01 -4.578388e+00 156 98 112
1.043258e+00 6.792463e-01 -5.530802e+00 45 10 7
9.226237e-02 5.976923e-01 -5.419729e+00 82 11 26
-6.586925e-01 5.066180e-01 -4.634088e+00 235 181 194
-1.059187e+00 4.855364e-01 -4.586425e+00 183 230 255
-9.192889e-01 7.834405e-01 -4.530997e+00 225 165 176
9.544170e-01 -1.980695e-02 -5.634223e+00 66 13 22
1.246171e+00 9.827626e-02 -5.528611e+00 95 35 39
1.119087e+00 1.053608e-01 -5.586093e+00 172 101 113
7.098288e-01 1.751995e-01 -5.703374e+00 111 13 20
2.109988e+00 3.512119e-01 -6.464579e+00 147 111 51
9.084968e-01 6.265428e-01 -5.528896e+00 104 11 16
-1.262088e-01 6.315625e-01 -5.436074e+00 106 9 21
-9.790994e-01 5.063678e-01 -4.596198e+00 255 254 254
-9.896219e-01 7.976297e-01 -4.547069e+00 224 166 176
-1.023421e+00 7.945896e-01 -4.546847e+00 227 167 179
-1.135635e+00 7.933249e-01 -4.557494e+00 133 74 96
4.159449e-01 1.171446e+00 -5.581337e+00 161 21 32
1.602503e+00 1.321717e+00 -5.310692e+00 69 31 28
1.602503e+00 1.321717e+00 -5.310692e+00 69 31 28
2.737586e+00 -2.904438e+00 -9.921296e+00 59 47 61
2.178184e+00 -8.773864e-01 -6.340283e+00 216 192 86
9.129222e-01 -3.195915e-02 -5.673446e+00 173 134 153
2.154334e+00 6.152797e-01 -6.328832e+00 111 64 25
-1.088529e+00 4.576981e-01 -4.607067e+00 168 157 198
-7.051944e-01 6.462282e-01 -4.563057e+00 170 104 126
-1.015224e+00 7.616277e-01 -4.534426e+00 174 107 127
-1.015224e+00 7.616277e-01 -4.534426e+00 174 107 127
1.724786e+00 1.448652e+00 -5.463357e+00 69 30 30
2.561968e+00 -2.955008e+00 -1.033639e+01 103 99 121
2.308654e+00 -3.057517e+00 -1.111559e+01 108 101 118
1.778986e+00 -3.409579e+00 -1.258237e+01 97 90 106
2.654592e+00 -2.623094e+00 -1.014826e+01 119 113 129
2.580463e+00 -2.638990e+00 -1.029502e+01 67 55 65
2.427127e+00 -2.601946e+00 -1.069860e+01 64 53 67
2.427127e+00 -2.601946e+00 -1.069860e+01 64 53 67
2.338806e+00 -2.393269e+00 -1.103063e+01 73 53 61
2.291414e+00 -2.399662e+00 -1.109152e+01 124 120 134
2.291414e+00 -2.399662e+00 -1.109152e+01 124 120 134
2.337532e+00 -2.276596e+00 -1.091988e+01 121 117 134
2.546936e+00 -5.966141e-01 -5.461938e+00 240 183 194
2.566497e+00 -5.612199e-01 -5.400108e+00 243 196 214
2.574654e+00 -4.743797e-01 -5.376363e+00 234 171 187
2.238652e+00 -6.065892e-01 -6.216355e+00 177 147 41
2.579137e+00 -4.198253e-01 -5.346817e+00 237 187 201
9.616905e-01 2.015059e-02 -5.635154e+00 171 124 141
-5.816965e-01 -2.407330e-02 -4.737503e+00 226 178 187
-5.312500e-01 1.025344e-01 -4.650521e+00 157 101 112
-5.312500e-01 1.025344e-01 -4.650521e+00 157 101 112
-9.953056e-01 9.634976e-02 -4.623588e+00 215 151 168
-5.391475e-01 2.682364e-01 -4.597084e+00 158 99 111
7.949185e-02 6.273795e-01 -5.401460e+00 233 218 229
1.087045e-01 6.469303e-01 -5.394165e+00 229 219 231
-9.640564e-01 6.729679e-01 -4.569436e+00 241 217 230
3.590731e-01 9.757455e-01 -5.575487e+00 203 132 150
-9.694329e-01 7.657889e-01 -4.537865e+00 178 107 123
-1.053882e+00 7.772690e-01 -4.536143e+00 232 172 179
4.150539e-01 1.089746e+00 -5.575741e+00 151 23 55
2.777857e+00 -3.355843e+00 -9.863930e+00 111 102 120
2.454919e+00 -3.653993e+00 -1.073202e+01 100 95 113
2.548019e+00 -3.495922e+00 -1.048501e+01 114 111 129
2.571769e+00 -3.165588e+00 -1.041174e+01 117 106 126
2.471169e+00 -2.941507e+00 -1.063599e+01 57 46 60
2.115595e+00 -2.234802e+00 -1.150141e+01 107 92 111
1.921706e+00 -2.397812e+00 -1.216706e+01 97 87 99
2.573174e+00 -6.991298e-01 -5.388349e+00 247 138 75
2.221340e+00 -8.237858e-01 -6.246443e+00 215 192 85
2.575853e+00 -5.173853e-01 -5.384279e+00 249 179 194
2.557754e+00 -5.030867e-01 -5.423154e+00 234 189 194
-1.453157e-01 6.015167e-01 -5.401882e+00 209 176 193
1.583489e+00 1.098961e+00 -5.217955e+00 159 96 109
5.449727e-01 1.027070e+00 -5.600378e+00 212 136 155
-6.055353e-02 5.409177e-01 -5.487354e+00 243 238 244
2.005753e+00 8.478613e-01 -6.296839e+00 193 133 142
2.127472e+00 -6.402362e-01 -6.380472e+00 219 186 70
-1.123970e-01 3.163908e-01 -5.579608e+00 235 234 243
-2.889636e-02 1.545466e+00 -5.924032e+00 161 16 26
-9.298698e-02 1.971543e-01 -5.750396e+00 198 31 51
1.337370e+00 2.156183e-01 -5.578273e+00 188 119 130
1.429210e+00 3.378375e-01 -5.728924e+00 65 8 8
1.267624e+00 1.280373e+00 -5.389349e+00 184 137 151
-2.961388e+00 3.146293e+00 -1.202550e+01 24 22 27
-2.961388e+00 3.146293e+00 -1.202550e+01 24 22 27
-1.260559e+00 -2.901197e+00 -1.256854e+01 63 59 70
-1.820144e-01 2.410749e-01 -5.646526e+00 231 213 229
-1.553686e-01 7.221898e-01 -5.443940e+00 193 32 49
2.371552e+00 -1.165247e+00 -5.906437e+00 202 197 105
1.176833e+00 1.288067e-01 -5.573384e+00 189 123 137
2.538028e-01 5.323587e-01 -5.428309e+00 230 208 219
-1.433693e-01 5.827312e-01 -5.507235e+00 221 208 222
-1.553385e-01 7.166902e-01 -5.425626e+00 195 34 51
-8.536911e-02 7.925662e-01 -5.506009e+00 90 1 7
1.192895e+00 1.349502e+00 -5.995902e+00 157 20 30
1.579344e+00 1.474883e+00 -5.429317e+00 168 118 129
8.486828e-01 -4.924346e+00 -1.467860e+01 42 42 51
2.399919e+00 -3.668234e+00 -1.086855e+01 37 33 48
2.399919e+00 -3.668234e+00 -1.086855e+01 37 33 48
3.034595e+00 -2.971104e+00 -9.165149e+00 60 49 64
2.447897e+00 -2.082799e+00 -8.280444e+00 188 174 148
4.937293e-01 -3.246283e+00 -1.309315e+01 105 81 64
2.582653e+00 -3.620678e-01 -5.351759e+00 224 181 193
2.582653e+00 -3.620678e-01 -5.351759e+00 224 181 193
5.867062e-01 1.750222e+00 -5.904562e+00 68 1 1
2.697588e+00 -3.237796e+00 -1.003242e+01 53 42 51
2.697588e+00 -3.237796e+00 -1.003242e+01 53 42 51
1.756530e+00 -3.697018e+00 -1.254972e+01 10 10 12
1.756530e+00 -3.697018e+00 -1.254972e+01 10 10 12
2.333312e+00 -1.978601e+00 -8.581811e+00 178 170 140
1.540583e+00 -2.605284e+00 -1.251653e+01 110 83 65
1.404787e+00 -2.548484e+00 -1.250188e+01 18 29 45
2.064618e+00 -2.174352e+00 -1.161042e+01 54 40 42
2.543005e+00 -6.009485e-01 -5.389279e+00 225 192 209
8.217941e-01 1.325068e-01 -5.770766e+00 138 31 47
5.434850e-01 1.359128e-01 -5.713000e+00 211 42 80
-1.011384e+00 6.141718e-01 -4.574561e+00 179 225 255
-1.071303e+00 8.141680e-01 -4.542426e+00 152 97 120
1.726531e+00 1.448944e+00 -5.468478e+00 69 30 30
2.349916e+00 -3.942055e+00 -1.101984e+01 84 79 97
2.563550e+00 -3.357357e+00 -1.052283e+01 98 89 106
2.891419e+00 -2.913413e+00 -9.459977e+00 56 43 54
2.538337e+00 -3.015385e+00 -1.051037e+01 59 52 64
2.538337e+00 -3.015385e+00 -1.051037e+01 59 52 64
1.598116e+00 -3.245878e+00 -1.313945e+01 81 74 84
1.661593e+00 -2.781901e+00 -1.270671e+01 47 38 45
1.983537e+00 -2.336566e+00 -1.179484e+01 52 42 43
1.927208e+00 -1.172425e+00 -6.841701e+00 203 182 70
2.551226e+00 -6.044414e-01 -5.404584e+00 228 196 213
5.297141e-01 -2.772867e-01 -5.695283e+00 123 6 14
5.297141e-01 -2.772867e-01 -5.695283e+00 123 6 14
2.167629e+00 -2.750716e-01 -6.192405e+00 114 69 10
-9.576113e-01 -1.892325e-01 -5.016916e+00 35 44 92
1.207369e+00 1.959792e-01 -5.616030e+00 173 95 107
4.691859e-01 2.359394e-01 -5.693437e+00 124 4 14
2.138673e+00 2.942191e-01 -6.452329e+00 84 49 7
-4.422644e-01 4.425966e-01 -4.635713e+00 207 155 168
2.205799e+00 6.409165e-01 -6.325825e+00 176 139 90
-6.778582e-01 5.944620e-01 -4.583770e+00 189 126 143
-6.778582e-01 5.944620e-01 -4.583770e+00 189 126 143
-8.493846e-01 6.071202e-01 -4.609694e+00 247 228 240
2.728747e-01 7.143036e-01 -5.344080e+00 219 197 209
4.253587e-01 7.320725e-01 -5.403382e+00 246 224 228
4.253587e-01 7.320725e-01 -5.403382e+00 246 224 228
-7.052638e-01 6.463522e-01 -4.563479e+00 170 104 126
-3.510033e-02 8.301965e-01 -5.531744e+00 175 25 37
-7.945400e-01 7.102653e-01 -4.543544e+00 233 178 193
-1.113573e+00 7.651868e-01 -4.555990e+00 229 167 180
4.105598e-01 1.172670e+00 -5.577130e+00 155 24 37
1.227547e+00 1.152139e+00 -5.202420e+00 184 132 144
2.849263e+00 -3.184821e+00 -9.661374e+00 52 45 58
2.457615e+00 -3.443815e+00 -1.070002e+01 105 97 118
2.843031e+00 -3.019875e+00 -9.584876e+00 119 111 128
2.185437e+00 -3.534801e+00 -1.138947e+01 85 77 96
2.124058e+00 -3.472350e+00 -1.152578e+01 39 35 49
2.820059e+00 -2.804500e+00 -9.714664e+00 57 41 47
2.820059e+00 -2.804500e+00 -9.714664e+00 57 41 47
2.423579e+00 -2.916582e+00 -1.084505e+01 57 46 55
1.648131e+00 -3.455309e+00 -1.292048e+01 88 85 103
2.487709e+00 -2.187715e+00 -8.234287e+00 187 178 143
1.707562e+00 -3.080607e+00 -1.271934e+01 54 48 60
2.333555e+00 -2.054254e+00 -8.526583e+00 113 98 80
2.120751e+00 -2.420455e+00 -1.156761e+01 63 47 56
1.968290e+00 -2.254917e+00 -1.198569e+01 61 47 49
1.803459e+00 -2.149415e+00 -1.237364e+01 62 47 49
2.230448e+00 -8.717256e-01 -6.293252e+00 214 191 78
2.551441e+00 -6.300347e-01 -5.475335e+00 221 70 104
2.083354e+00 -5.573339e-01 -6.536670e+00 228 191 78
2.281123e+00 -4.685602e-01 -6.145795e+00 229 196 57
2.281123e+00 -4.685602e-01 -6.145795e+00 229 196 57
8.317987e-01 -3.651323e-01 -5.487862e+00 170 47 61
2.227953e+00 -3.530532e-01 -6.200305e+00 98 62 2
2.200156e+00 -3.130477e-01 -6.202314e+00 121 76 14
2.591512e+00 -2.417862e-01 -5.342259e+00 240 192 195
-5.710718e-01 1.988148e-02 -4.689108e+00 218 170 181
-5.045032e-01 1.993153e-01 -4.635279e+00 225 164 172
2.169864e+00 3.089769e-01 -6.432275e+00 176 139 48
-4.066763e-01 4.905929e-01 -4.706922e+00 220 191 199
-1.107472e+00 5.014816e-01 -4.606271e+00 173 160 196
3.580977e-01 6.715719e-01 -5.416736e+00 243 214 219
1.322843e-01 7.209485e-01 -5.448619e+00 71 6 13
-1.054001e+00 6.478008e-01 -4.572564e+00 242 226 244
-9.754771e-01 7.385420e-01 -4.539273e+00 228 165 173
-1.032628e+00 8.262809e-01 -4.554501e+00 157 100 122
5.872349e-02 1.537605e+00 -5.879562e+00 108 2 1
-3.824172e+00 3.906004e+00 -1.164479e+01 147 93 87
2.220094e+00 -3.969545e+00 -1.134212e+01 51 45 59
2.261136e+00 -3.914981e+00 -1.122775e+01 89 87 105
1.000111e+00 -5.049824e+00 -1.460081e+01 49 48 57
2.598441e+00 -3.579356e+00 -1.039386e+01 111 107 131
2.250867e+00 -3.800109e+00 -1.119289e+01 88 85 102
2.711623e+00 -3.393025e+00 -1.005683e+01 59 54 71
3.026182e+00 -3.068575e+00 -9.195448e+00 56 47 63
2.413142e+00 -3.531851e+00 -1.093795e+01 100 96 119
2.344701e+00 -3.552649e+00 -1.111102e+01 56 46 58
2.382726e+00 -3.322035e+00 -1.084786e+01 53 46 61
2.542309e+00 -3.194491e+00 -1.048419e+01 68 58 74
2.167790e+00 -3.441393e+00 -1.149097e+01 88 81 97
1.636024e+00 -3.852813e+00 -1.293801e+01 36 26 32
2.529305e+00 -3.119589e+00 -1.054313e+01 101 93 110
1.986197e+00 -3.513594e+00 -1.199361e+01 52 47 68
1.986197e+00 -3.513594e+00 -1.199361e+01 52 47 68
2.686186e+00 -2.862220e+00 -1.004934e+01 46 34 46
2.110843e+00 -3.305517e+00 -1.172236e+01 90 78 86
2.110843e+00 -3.305517e+00 -1.172236e+01 90 78 86
1.986613e+00 -3.167365e+00 -1.195293e+01 57 49 60
1.984850e+00 -3.086732e+00 -1.191350e+01 89 85 99
1.984850e+00 -3.086732e+00 -1.191350e+01 89 85 99
2.053961e+00 -2.907605e+00 -1.176354e+01 66 59 74
2.053961e+00 -2.907605e+00 -1.176354e+01 66 59 74
2.517262e+00 -2.578502e+00 -1.049420e+01 106 99 115
2.517262e+00 -2.578502e+00 -1.049420e+01 106 99 115
2.427958e+00 -2.602227e+00 -1.070234e+01 64 53 67
1.270426e+00 -3.020366e+00 -1.395439e+01 74 67 78
2.369957e+00 -1.161030e+00 -5.902247e+00 197 196 106
2.346382e+00 -2.065465e+00 -1.094029e+01 71 60 79
2.198902e+00 -2.044428e+00 -1.117352e+01 91 79 87
2.198902e+00 -2.044428e+00 -1.117352e+01 91 79 87
2.029065e+00 -2.056662e+00 -1.170593e+01 62 50 55
2.596349e+00 -2.997912e-01 -5.312188e+00 234 190 210
2.602932e+00 -2.013365e-01 -5.338852e+00 237 193 207
-8.486623e-01 4.814900e-01 -4.589585e+00 181 161 192
-3.449626e-02 5.959369e-01 -5.399026e+00 194 171 186
-1.059152e+00 5.283930e-01 -4.578031e+00 147 198 227
4.480747e-02 6.110093e-01 -5.397126e+00 239 225 235
-9.238692e-01 6.619518e-01 -4.565969e+00 235 199 216
5.128534e-01 9.001033e-01 -5.550773e+00 204 160 177
-8.180436e-01 7.661964e-01 -4.545193e+00 146 87 107
3.590044e-01 9.756126e-01 -5.574559e+00 203 132 150
-9.286616e-01 8.455624e-01 -4.559219e+00 216 161 173
-3.822745e+00 3.456743e+00 -1.162021e+01 144 79 71
-5.203166e+00 3.501379e+00 -1.134653e+01 128 72 58
-5.203166e+00 3.501379e+00 -1.134653e+01 128 72 58
-5.355410e+00 3.491483e+00 -1.128294e+01 126 72 64
-5.355410e+00 3.491483e+00 -1.128294e+01 126 72 64
-3.238602e+00 3.634069e+00 -1.174147e+01 142 89 80
-3.238602e+00 3.634069e+00 -1.174147e+01 142 89 80
-4.782803e+00 3.690068e+00 -1.139356e+01 134 72 65
-4.733864e+00 3.770951e+00 -1.134571e+01 135 75 58
-3.424204e+00 3.901430e+00 -1.170744e+01 143 85 86
6.492790e-01 2.896512e-01 -5.531402e+00 210 33 57
6.492790e-01 2.896512e-01 -5.531402e+00 210 33 57
-8.667451e-01 5.854037e-01 -4.570773e+00 161 183 219
2.163777e+00 1.150208e+00 -5.951555e+00 212 176 116
7.615967e-01 8.232685e-02 -5.719102e+00 238 231 239
9.082255e-01 6.526138e-01 -5.532834e+00 147 17 25
-3.125933e+00 3.708427e+00 -1.450339e+01 28 25 33
-2.905500e+00 3.967932e+00 -1.639900e+01 96 85 103
2.530522e+00 1.887368e+00 -5.213246e+00 173 157 104
1.941313e+00 -1.055871e+00 -6.792631e+00 203 178 60
9.004820e-01 -7.157294e-02 -5.613485e+00 51 9 18
2.560326e-01 1.369155e-01 -5.616091e+00 203 42 84
6.415211e-01 2.045189e-01 -5.675039e+00 115 4 13
-6.438648e-01 4.163588e-01 -4.601811e+00 212 160 173
-8.722343e-01 5.328064e-01 -4.565990e+00 188 226 254
-1.015611e+00 6.746490e-01 -4.578748e+00 243 231 243
2.738270e+00 -2.904365e+00 -9.918497e+00 59 47 61
2.055335e+00 -2.307282e+00 -1.179947e+01 104 96 105
1.836063e+00 -1.789440e+00 -1.236547e+01 75 54 61
-9.286308e-01 -1.750223e-01 -5.048595e+00 251 253 255
8.340124e-01 1.165060e-02 -5.688781e+00 222 196 212
-9.570238e-01 4.372292e-01 -4.585821e+00 165 217 253
1.074939e+00 6.275946e-01 -5.473973e+00 101 6 12
-1.090545e+00 7.464635e-01 -4.573443e+00 173 111 132
5.260072e-01 9.784227e-01 -5.555753e+00 153 14 28
-8.587043e-01 9.676613e-01 -4.606287e+00 157 123 142
9.786319e-01 1.654299e+00 -5.744681e+00 140 25 35
2.979719e+00 -3.223954e+00 -9.346235e+00 123 117 137
2.979719e+00 -3.223954e+00 -9.346235e+00 123 117 137
2.742672e+00 -3.335049e+00 -9.972681e+00 117 111 132
2.579633e+00 -2.638706e+00 -1.029422e+01 67 55 65
2.345604e+00 -2.396056e+00 -1.104690e+01 73 53 61
2.226159e+00 -7.332025e-01 -6.250340e+00 162 136 39
2.185707e+00 -6.989635e-01 -6.326163e+00 164 169 118
2.269589e+00 -4.967464e-01 -6.135663e+00 225 194 63
2.269589e+00 -4.967464e-01 -6.135663e+00 225 194 63
1.424925e+00 2.227478e-01 -5.551456e+00 75 11 12
-5.630032e-01 2.692851e-01 -4.585195e+00 226 174 184
-9.119794e-01 4.020077e-01 -4.620757e+00 245 237 249
2.510280e+00 -3.505832e+00 -1.053788e+01 51 47 63
3.001674e+00 -3.045443e+00 -9.233036e+00 104 99 117
2.941553e+00 -3.048738e+00 -9.392652e+00 115 100 121
2.808583e+00 -3.143042e+00 -9.767187e+00 32 30 45
2.657423e+00 -3.213094e+00 -1.024423e+01 115 109 126
2.372834e+00 -3.318766e+00 -1.097779e+01 113 109 127
2.423381e+00 -2.845247e+00 -1.080136e+01 116 108 123
2.543378e+00 -2.483830e+00 -1.034241e+01 112 104 121
2.079112e+00 -2.027975e+00 -1.167604e+01 107 90 101
2.079112e+00 -2.027975e+00 -1.167604e+01 107 90 101
2.548459e+00 -5.772546e-01 -5.413751e+00 208 105 132
2.548459e+00 -5.772546e-01 -5.413751e+00 208 105 132
2.557814e+00 -5.274657e-01 -5.404327e+00 209 98 134
2.573656e+00 -4.482184e-01 -5.394313e+00 208 95 122
2.292871e+00 -4.528530e-01 -6.083979e+00 167 135 16
2.587076e+00 -2.178756e-01 -5.345124e+00 216 81 99
2.587076e+00 -2.178756e-01 -5.345124e+00 216 81 99
2.315570e+00 -2.023641e-02 -6.025907e+00 167 136 16
2.315570e+00 -2.023641e-02 -6.025907e+00 167 136 16
9.019607e-01 3.389949e-02 -5.635592e+00 223 194 208
2.518563e+00 9.083297e-02 -5.493094e+00 184 158 92
1.718143e-01 6.881894e-01 -5.405097e+00 187 157 176
-7.848844e-01 9.445595e-01 -4.616177e+00 132 93 111
-2.464118e+00 3.155035e+00 -1.196557e+01 91 86 95
-2.464118e+00 3.155035e+00 -1.196557e+01 91 86 95
2.118098e+00 5.269343e-01 -6.343028e+00 149 88 70
-4.900956e-01 -3.009840e-01 -5.346472e+00 158 131 133
4.795204e-01 1.353711e+00 -5.766209e+00 18 7 6
1.904650e+00 -1.147075e+00 -6.784057e+00 217 201 91
-5.169906e-01 -1.470315e-01 -5.021493e+00 248 206 217
1.343709e+00 1.312110e-01 -5.459174e+00 131 25 22
-9.772851e-01 2.130699e-01 -4.629125e+00 223 160 169
2.179917e-01 8.476254e-01 -5.545211e+00 231 42 72
1.426342e+00 1.360398e+00 -5.285748e+00 201 144 155
1.149864e+00 6.832374e-02 -5.442753e+00 134 59 62
9.752205e-01 6.649178e-02 -5.531911e+00 74 10 10
8.026464e-01 -2.275114e+00 -1.232669e+01 150 127 126
-8.412666e-01 3.230932e-01 -4.604308e+00 217 151 166
1.936727e+00 -1.071380e+00 -6.783607e+00 234 210 88
2.234577e+00 -6.335729e-01 -6.151291e+00 243 216 79
2.284593e+00 -5.318823e-01 -6.098430e+00 189 157 34
2.284593e+00 -5.318823e-01 -6.098430e+00 189 157 34
1.227160e+00 -3.342914e-01 -5.329247e+00 195 133 135
-1.115124e+00 2.795763e-01 -4.689444e+00 233 171 185
-5.709355e-01 3.628998e-01 -4.590254e+00 187 125 131
-6.112664e-01 4.323634e-01 -4.589615e+00 149 90 108
-9.789251e-01 8.321029e-01 -4.549857e+00 185 119 134
2.347327e+00 -2.285063e+00 -1.095114e+01 153 149 170
2.175371e+00 -8.345504e-01 -6.308658e+00 240 219 94
2.156067e+00 -8.446274e-01 -6.361011e+00 185 193 135
2.156067e+00 -8.446274e-01 -6.361011e+00 185 193 135
2.250716e+00 -7.541670e-01 -6.183532e+00 197 169 49
2.592201e+00 -3.587190e-01 -5.332794e+00 254 215 233
-9.842540e-01 2.529502e-01 -4.662998e+00 255 216 221
2.641121e+00 -3.055517e+00 -1.018978e+01 140 131 150
2.556674e+00 -2.687583e+00 -1.035736e+01 128 115 128
2.403234e+00 -2.808097e+00 -1.084089e+01 80 68 82
2.346203e+00 -2.799392e+00 -1.092732e+01 84 72 87
-1.219815e+00 -2.912257e+00 -1.318551e+01 85 46 56
2.229432e+00 -8.871445e-01 -6.217975e+00 200 173 44
2.189582e+00 -8.717888e-01 -6.284086e+00 196 170 45
1.981894e+00 -2.125793e+00 -1.193385e+01 74 49 49
2.272245e+00 -3.678940e-01 -6.140744e+00 206 172 32
-7.857826e-01 -2.088676e-01 -5.039446e+00 250 240 251
-1.021684e+00 -2.255704e-01 -5.065617e+00 155 201 235
-1.031223e+00 -1.767628e-01 -5.017015e+00 119 141 190
1.236414e+00 -9.451699e-02 -5.336300e+00 236 173 181
-5.339860e-01 -2.772242e-02 -4.762897e+00 255 209 215
8.937565e-01 1.454860e-01 -5.709081e+00 150 41 66
-7.627079e-01 4.020623e-01 -4.607630e+00 202 131 146
3.071919e-01 6.629773e-01 -5.383342e+00 153 104 124
3.225127e-01 6.884192e-01 -5.395904e+00 247 224 229
-1.162151e+00 8.446211e-01 -4.595838e+00 249 196 203
-3.885428e-02 4.059932e-02 2.549517e-01 0 255 0
-3.861509e-02 4.029096e-02 2.049532e-01 255 255 0
-7.144413e-01 7.621735e-01 6.373539e-01 255 0 0
-7.112281e-01 7.593839e-01 5.875353e-01 255 255 0
-1.330471e+00 2.262747e-01 -1.161719e-01 0 255 0
-1.318699e+00 2.245635e-01 -1.647362e-01 255 255 0
