ply
format ascii 1.0
element face 0
property list uchar int vertex_indices
element vertex 277
property float x
property float y
property float z
property uchar diffuse_red
property uchar diffuse_green
property uchar diffuse_blue
end_header
1.932986e+00 -1.171229e+00 -6.864058e+00 203 182 70
2.222018e+00 -8.967816e-01 -6.317807e+00 221 195 83
2.222018e+00 -8.967816e-01 -6.317807e+00 221 195 83
2.236972e+00 -8.835688e-01 -6.268292e+00 177 153 51
2.247361e+00 -7.812904e-01 -6.305387e+00 214 189 76
2.230472e+00 -8.199705e-01 -6.297651e+00 215 192 85
2.206304e+00 -1.000803e+00 -6.375415e+00 212 189 70
2.247695e+00 -6.966538e-01 -6.252896e+00 215 190 73
1.939423e+00 -1.132350e+00 -6.876730e+00 41 28 0
1.939423e+00 -1.132350e+00 -6.876730e+00 41 28 0
2.568890e+00 -3.605148e-01 -5.458443e+00 234 192 195
2.560174e+00 -4.128994e-01 -5.474341e+00 240 179 181
-1.005125e+00 5.706957e-01 -4.604804e+00 22 27 46
-1.005125e+00 5.706957e-01 -4.604804e+00 22 27 46
-1.005125e+00 5.706957e-01 -4.604804e+00 22 27 46
-9.668334e-01 -2.091621e-01 -5.074690e+00 23 24 28
8.388411e-01 8.766200e-02 -5.642894e+00 210 177 196
1.879206e-03 3.923742e-01 -5.507400e+00 144 19 27
-1.050820e+00 6.894623e-01 -4.621712e+00 201 211 244
1.003683e+00 2.801761e-02 -5.453079e+00 173 109 126
9.813418e-01 6.185905e-01 -5.512254e+00 213 193 208
9.813418e-01 6.185905e-01 -5.512254e+00 213 193 208
3.204119e-01 5.403506e-01 -5.409962e+00 73 2 3
-9.903570e-01 4.394924e-01 -4.669905e+00 190 201 238
4.215029e-01 1.065155e+00 -5.573660e+00 163 18 29
2.373370e+00 -1.165711e+00 -5.976616e+00 202 197 105
-5.727512e-02 4.969791e-01 -5.521581e+00 224 55 94
-5.727512e-02 4.969791e-01 -5.521581e+00 224 55 94
7.990586e-01 6.119684e-01 -5.503689e+00 95 0 2
-6.779559e-01 4.924952e-01 -4.662411e+00 108 54 70
1.062131e-01 7.062228e-01 -5.413620e+00 218 203 221
3.617507e-01 1.159454e+00 -5.577539e+00 171 150 172
2.563281e+00 -4.808700e-01 -5.476924e+00 226 182 185
2.563281e+00 -4.808700e-01 -5.476924e+00 226 182 185
9.395494e-01 1.939119e-01 -5.724544e+00 99 3 5
-5.898028e-01 3.553959e-01 -4.588376e+00 156 98 112
1.024801e+00 7.099859e-01 -5.521404e+00 45 10 7
6.442366e-02 6.310954e-01 -5.409694e+00 82 11 26
-6.926615e-01 5.377581e-01 -4.639331e+00 235 181 194
-1.098748e+00 5.175745e-01 -4.627955e+00 183 230 255
-9.550118e-01 8.173126e-01 -4.566376e+00 225 165 176
9.319467e-01 6.786184e-03 -5.617153e+00 66 13 22
1.231331e+00 1.214665e-01 -5.540337e+00 95 35 39
1.105129e+00 1.289145e-01 -5.601513e+00 172 101 113
6.954727e-01 2.021949e-01 -5.738010e+00 111 13 20
2.105716e+00 3.761770e-01 -6.437413e+00 147 111 51
8.918033e-01 6.571365e-01 -5.532875e+00 104 11 16
-1.560052e-01 6.674074e-01 -5.438469e+00 106 9 21
-1.015909e+00 5.386268e-01 -4.623161e+00 255 254 254
-1.026007e+00 8.317034e-01 -4.586476e+00 224 166 176
-1.060434e+00 8.291853e-01 -4.589107e+00 227 167 179
-1.173019e+00 8.274671e-01 -4.602242e+00 133 74 96
3.949281e-01 1.209972e+00 -5.571730e+00 161 21 32
1.583202e+00 1.347889e+00 -5.314701e+00 69 31 28
1.583202e+00 1.347889e+00 -5.314701e+00 69 31 28
2.797276e+00 -2.964785e+00 -9.988015e+00 59 47 61
2.187375e+00 -8.737083e-01 -6.387865e+00 216 192 86
8.937338e-01 -9.052587e-03 -5.671167e+00 173 134 153
2.173544e+00 6.452712e-01 -6.373216e+00 111 64 25
-1.125359e+00 4.885441e-01 -4.634168e+00 168 157 198
-7.402058e-01 6.780350e-01 -4.587825e+00 170 104 126
-1.051974e+00 7.955159e-01 -4.574668e+00 174 107 127
-1.051974e+00 7.955159e-01 -4.574668e+00 174 107 127
1.714880e+00 1.478917e+00 -5.487108e+00 69 30 30
2.600469e+00 -2.998143e+00 -1.032217e+01 103 99 121
2.366323e+00 -3.128966e+00 -1.116831e+01 108 101 118
1.824341e+00 -3.492763e+00 -1.261966e+01 97 90 106
2.713396e+00 -2.673797e+00 -1.019072e+01 119 113 129
2.627865e+00 -2.679112e+00 -1.029618e+01 67 55 65
2.484970e+00 -2.652699e+00 -1.073128e+01 64 53 67
2.484970e+00 -2.652699e+00 -1.073128e+01 64 53 67
2.417192e+00 -2.459686e+00 -1.113368e+01 73 53 61
2.358607e+00 -2.454576e+00 -1.115194e+01 124 120 134
2.358607e+00 -2.454576e+00 -1.115194e+01 124 120 134
2.397097e+00 -2.316304e+00 -1.094293e+01 121 117 134
2.542555e+00 -5.894384e-01 -5.535503e+00 240 183 194
2.564061e+00 -5.541606e-01 -5.482089e+00 243 196 214
2.575276e+00 -4.669634e-01 -5.464141e+00 234 171 187
2.252128e+00 -5.994493e-01 -6.273770e+00 177 147 41
2.574641e+00 -4.108771e-01 -5.425476e+00 237 187 201
9.425729e-01 4.371425e-02 -5.632055e+00 171 124 141
-6.189177e-01 4.697353e-03 -4.745208e+00 226 178 187
-5.680699e-01 1.308638e-01 -4.665045e+00 157 101 112
-5.680699e-01 1.308638e-01 -4.665045e+00 157 101 112
-1.032981e+00 1.275246e-01 -4.641233e+00 215 151 168
-5.752540e-01 2.979388e-01 -4.613288e+00 158 99 111
5.162066e-02 6.609997e-01 -5.392091e+00 233 218 229
8.150929e-02 6.800158e-01 -5.389163e+00 229 219 231
-9.989031e-01 7.052800e-01 -4.593910e+00 241 217 230
3.364377e-01 1.013098e+00 -5.563615e+00 203 132 150
-1.006396e+00 7.995624e-01 -4.579614e+00 178 107 123
-1.090964e+00 8.112058e-01 -4.579081e+00 232 172 179
3.939340e-01 1.128735e+00 -5.569786e+00 151 23 55
2.799671e+00 -3.386760e+00 -9.835710e+00 111 102 120
2.493533e+00 -3.719918e+00 -1.074838e+01 100 95 113
2.585871e+00 -3.553558e+00 -1.049471e+01 114 111 129
2.613604e+00 -3.217348e+00 -1.041747e+01 117 106 126
2.517408e+00 -2.992526e+00 -1.064083e+01 57 46 60
2.160451e+00 -2.259730e+00 -1.145767e+01 107 92 111
1.983252e+00 -2.452085e+00 -1.222286e+01 97 87 99
2.556551e+00 -6.893612e-01 -5.447539e+00 247 138 75
2.230472e+00 -8.199705e-01 -6.297651e+00 215 192 85
2.569156e+00 -5.085843e-01 -5.458168e+00 249 179 194
2.555032e+00 -4.947700e-01 -5.500862e+00 234 189 194
-1.755607e-01 6.358366e-01 -5.386552e+00 209 176 193
1.573575e+00 1.129000e+00 -5.255665e+00 159 96 109
5.236677e-01 1.062648e+00 -5.581094e+00 212 136 155
-9.014042e-02 5.755960e-01 -5.474483e+00 243 238 244
2.007648e+00 8.804991e-01 -6.295228e+00 193 133 142
2.132474e+00 -6.301421e-01 -6.406571e+00 219 186 70
-1.434477e-01 3.496535e-01 -5.563870e+00 235 234 243
-5.131596e-02 1.594026e+00 -5.912780e+00 161 16 26
-1.239682e-01 2.299801e-01 -5.730660e+00 198 31 51
1.322729e+00 2.401545e-01 -5.583115e+00 188 119 130
1.417371e+00 3.640858e-01 -5.730277e+00 65 8 8
1.252626e+00 1.312437e+00 -5.397814e+00 184 137 151
-3.014738e+00 3.280546e+00 -1.187212e+01 24 22 27
-3.014738e+00 3.280546e+00 -1.187212e+01 24 22 27
-1.337303e+00 -2.959998e+00 -1.264416e+01 63 59 70
-2.140317e-01 2.742622e-01 -5.629544e+00 231 213 229
-1.850273e-01 7.587528e-01 -5.434122e+00 193 32 49
2.373370e+00 -1.165711e+00 -5.976616e+00 202 197 105
1.160021e+00 1.532362e-01 -5.575206e+00 189 123 137
2.271396e-01 5.649879e-01 -5.417308e+00 230 208 219
-1.735228e-01 6.183570e-01 -5.494264e+00 221 208 222
-1.850725e-01 7.530514e-01 -5.416197e+00 195 34 51
-1.137763e-01 8.299808e-01 -5.495010e+00 90 1 7
1.183694e+00 1.389656e+00 -5.986402e+00 157 20 30
1.566708e+00 1.505727e+00 -5.446016e+00 168 118 129
8.658266e-01 -5.105009e+00 -1.485311e+01 42 42 51
2.441022e+00 -3.738682e+00 -1.089308e+01 37 33 48
2.441022e+00 -3.738682e+00 -1.089308e+01 37 33 48
3.062581e+00 -3.001477e+00 -9.172068e+00 60 49 64
2.473914e+00 -2.103728e+00 -8.303281e+00 188 174 148
4.957568e-01 -3.343185e+00 -1.320919e+01 105 81 64
2.575594e+00 -3.517051e-01 -5.423716e+00 224 181 193
2.575594e+00 -3.517051e-01 -5.423716e+00 224 181 193
5.721435e-01 1.796672e+00 -5.898733e+00 68 1 1
2.736755e+00 -3.287981e+00 -1.004707e+01 53 42 51
2.736755e+00 -3.287981e+00 -1.004707e+01 53 42 51
1.804631e+00 -3.801994e+00 -1.263110e+01 10 10 12
1.804631e+00 -3.801994e+00 -1.263110e+01 10 10 12
2.362798e+00 -1.999241e+00 -8.597973e+00 178 170 140
1.590948e+00 -2.673658e+00 -1.260171e+01 110 83 65
1.449394e+00 -2.614102e+00 -1.258665e+01 18 29 45
2.128482e+00 -2.219407e+00 -1.166000e+01 54 40 42
2.537611e+00 -5.933955e-01 -5.466477e+00 225 192 209
8.020472e-01 1.599127e-01 -5.759182e+00 138 31 47
5.197428e-01 1.645741e-01 -5.698330e+00 211 42 80
-1.047845e+00 6.470385e-01 -4.605048e+00 179 225 255
-1.107202e+00 8.482182e-01 -4.580749e+00 152 97 120
1.714880e+00 1.478917e+00 -5.487108e+00 69 30 30
2.387020e+00 -4.017153e+00 -1.104326e+01 84 79 97
2.608044e+00 -3.418182e+00 -1.054470e+01 98 89 106
2.927983e+00 -2.951033e+00 -9.472507e+00 56 43 54
2.588397e+00 -3.071716e+00 -1.053473e+01 59 52 64
2.588397e+00 -3.071716e+00 -1.053473e+01 59 52 64
1.652280e+00 -3.345806e+00 -1.324965e+01 81 74 84
1.717886e+00 -2.859169e+00 -1.279872e+01 47 38 45
2.045489e+00 -2.388972e+00 -1.185152e+01 52 42 43
1.932986e+00 -1.171229e+00 -6.864058e+00 203 182 70
2.546001e+00 -5.969060e-01 -5.481360e+00 228 196 213
5.039727e-01 -2.536214e-01 -5.686333e+00 123 6 14
5.039727e-01 -2.536214e-01 -5.686333e+00 123 6 14
2.170620e+00 -2.593228e-01 -6.215305e+00 114 69 10
-9.976900e-01 -1.583288e-01 -5.023947e+00 35 44 92
1.191453e+00 2.212266e-01 -5.616404e+00 173 95 107
4.448552e-01 2.660436e-01 -5.677685e+00 124 4 14
2.144422e+00 3.200386e-01 -6.455380e+00 84 49 7
-4.769248e-01 4.725197e-01 -4.650573e+00 207 155 168
2.210041e+00 6.700306e-01 -6.330164e+00 176 139 90
-7.129315e-01 6.258906e-01 -4.605950e+00 189 126 143
-7.129315e-01 6.258906e-01 -4.605950e+00 189 126 143
-8.852259e-01 6.395429e-01 -4.634667e+00 247 228 240
2.469637e-01 7.478669e-01 -5.336549e+00 219 197 209
4.013294e-01 7.654884e-01 -5.395288e+00 246 224 228
4.013294e-01 7.654884e-01 -5.395288e+00 246 224 228
-7.402058e-01 6.780350e-01 -4.587825e+00 170 104 126
-6.271257e-02 8.679445e-01 -5.520235e+00 175 25 37
-8.295915e-01 7.425432e-01 -4.571847e+00 233 178 193
-1.149864e+00 7.992051e-01 -4.593736e+00 229 167 180
3.895400e-01 1.211668e+00 -5.568895e+00 155 24 37
1.210041e+00 1.181787e+00 -5.214777e+00 184 132 144
2.882936e+00 -3.226393e+00 -9.670631e+00 52 45 58
2.501478e+00 -3.509154e+00 -1.072449e+01 105 97 118
2.879390e+00 -3.060348e+00 -9.597215e+00 119 111 128
2.233129e+00 -3.615169e+00 -1.143140e+01 85 77 96
2.173020e+00 -3.554000e+00 -1.157196e+01 39 35 49
2.863811e+00 -2.845635e+00 -9.730344e+00 57 41 47
2.863811e+00 -2.845635e+00 -9.730344e+00 57 41 47
2.478426e+00 -2.976009e+00 -1.087646e+01 57 46 55
1.699509e+00 -3.559289e+00 -1.301939e+01 88 85 103
2.512272e+00 -2.209920e+00 -8.259640e+00 187 178 143
1.763069e+00 -3.169205e+00 -1.281142e+01 54 48 60
2.361480e+00 -2.076127e+00 -8.544571e+00 113 98 80
2.183758e+00 -2.474014e+00 -1.161737e+01 63 47 56
2.033058e+00 -2.305747e+00 -1.204834e+01 61 47 49
1.867664e+00 -2.198789e+00 -1.245166e+01 62 47 49
2.235692e+00 -8.664193e-01 -6.332955e+00 214 191 78
2.547448e+00 -6.227612e-01 -5.549916e+00 221 70 104
2.089494e+00 -5.451445e-01 -6.553928e+00 228 191 78
2.285025e+00 -4.566636e-01 -6.179512e+00 229 196 57
2.285025e+00 -4.566636e-01 -6.179512e+00 229 196 57
8.085678e-01 -3.450257e-01 -5.493274e+00 170 47 61
2.231816e+00 -3.388438e-01 -6.227009e+00 98 62 2
2.203690e+00 -2.980442e-01 -6.226962e+00 121 76 14
2.583530e+00 -2.300973e-01 -5.410831e+00 240 192 195
-6.084059e-01 4.856833e-02 -4.701857e+00 218 170 181
-5.406982e-01 2.282800e-01 -4.649274e+00 225 164 172
2.175651e+00 3.347036e-01 -6.436502e+00 176 139 48
-4.408202e-01 5.210955e-01 -4.719307e+00 220 191 199
-1.144787e+00 5.343545e-01 -4.636080e+00 173 160 196
3.331539e-01 7.048886e-01 -5.407360e+00 243 214 219
1.054897e-01 7.561243e-01 -5.437997e+00 71 6 13
-1.090508e+00 6.810140e-01 -4.605046e+00 242 226 244
-1.011240e+00 7.717139e-01 -4.573004e+00 228 165 173
-1.068307e+00 8.603440e-01 -4.591395e+00 157 100 122
3.718421e-02 1.585271e+00 -5.869885e+00 108 2 1
-3.840589e+00 4.004997e+00 -1.143175e+01 147 93 87
2.259719e+00 -4.053116e+00 -1.137491e+01 51 45 59
2.300964e+00 -3.995744e+00 -1.125888e+01 89 87 105
1.022534e+00 -5.231085e+00 -1.476521e+01 49 48 57
2.635499e+00 -3.637864e+00 -1.040802e+01 111 107 131
2.292091e+00 -3.879476e+00 -1.122531e+01 88 85 102
2.747599e+00 -3.443642e+00 -1.006844e+01 59 54 71
3.051858e+00 -3.098932e+00 -9.200082e+00 56 47 63
2.458677e+00 -3.602536e+00 -1.096615e+01 100 96 119
2.391370e+00 -3.627175e+00 -1.114351e+01 56 46 58
2.429997e+00 -3.389087e+00 -1.087764e+01 53 46 61
2.588839e+00 -3.253117e+00 -1.050732e+01 68 58 74
2.217999e+00 -3.521696e+00 -1.153604e+01 88 81 97
1.682484e+00 -3.968930e+00 -1.303482e+01 36 26 32
2.578052e+00 -3.178183e+00 -1.056788e+01 101 93 110
2.037277e+00 -3.604244e+00 -1.205467e+01 52 47 68
2.037277e+00 -3.604244e+00 -1.205467e+01 52 47 68
2.733427e+00 -2.909399e+00 -1.006829e+01 46 34 46
2.164911e+00 -3.386659e+00 -1.177523e+01 90 78 86
2.164911e+00 -3.386659e+00 -1.177523e+01 90 78 86
2.041716e+00 -3.248526e+00 -1.201467e+01 57 49 60
2.040285e+00 -3.165020e+00 -1.197408e+01 89 85 99
2.040285e+00 -3.165020e+00 -1.197408e+01 89 85 99
2.111862e+00 -2.978658e+00 -1.181932e+01 66 59 74
2.111862e+00 -2.978658e+00 -1.181932e+01 66 59 74
2.573399e+00 -2.626052e+00 -1.051939e+01 106 99 115
2.573399e+00 -2.626052e+00 -1.051939e+01 106 99 115
2.484970e+00 -2.652699e+00 -1.073128e+01 64 53 67
1.320043e+00 -3.121262e+00 -1.410996e+01 74 67 78
2.371752e+00 -1.161441e+00 -5.972469e+00 197 196 106
2.411036e+00 -2.102363e+00 -1.097177e+01 71 60 79
2.262390e+00 -2.082002e+00 -1.121015e+01 91 79 87
2.262390e+00 -2.082002e+00 -1.121015e+01 91 79 87
2.094051e+00 -2.097987e+00 -1.175811e+01 62 50 55
2.587926e+00 -2.887952e-01 -5.383787e+00 234 190 210
2.594494e+00 -1.892476e-01 -5.406495e+00 237 193 207
-8.850314e-01 5.130871e-01 -4.613258e+00 181 161 192
-6.378959e-02 6.303790e-01 -5.388813e+00 194 171 186
-1.096146e+00 5.610183e-01 -4.608140e+00 147 198 227
1.636895e-02 6.451959e-01 -5.387088e+00 239 225 235
-9.597578e-01 6.946702e-01 -4.595523e+00 235 199 216
4.913324e-01 9.358125e-01 -5.540332e+00 204 160 177
-8.529447e-01 7.989143e-01 -4.575196e+00 146 87 107
3.364377e-01 1.013098e+00 -5.563615e+00 203 132 150
-9.637587e-01 8.793547e-01 -4.593434e+00 216 161 173
-3.850991e+00 3.562276e+00 -1.141827e+01 144 79 71
-5.187303e+00 3.576198e+00 -1.113921e+01 128 72 58
-5.187303e+00 3.576198e+00 -1.113921e+01 128 72 58
-5.335441e+00 3.564272e+00 -1.108532e+01 126 72 64
-5.335441e+00 3.564272e+00 -1.108532e+01 126 72 64
-3.274068e+00 3.752867e+00 -1.155600e+01 142 89 80
-3.274068e+00 3.752867e+00 -1.155600e+01 142 89 80
-4.775930e+00 3.768995e+00 -1.117982e+01 134 72 65
-4.726459e+00 3.848992e+00 -1.113581e+01 135 75 58
-3.449610e+00 4.011370e+00 -1.150698e+01 143 85 86
-8.931516e-02 4.448223e-02 -4.444386e-02 0 255 0
-8.889199e-02 4.438753e-02 -9.444198e-02 255 255 0
-7.458969e-01 7.551138e-01 3.157385e-01 255 0 0
-7.425099e-01 7.525228e-01 2.659207e-01 255 255 0
