# .PCD v0.7 - Point Cloud Data file format
VERSION 0.7
FIELDS x y z rgb
SIZE 4 4 4 4
TYPE F F F F
COUNT 1 1 1 1
WIDTH 1285
HEIGHT 1
VIEWPOINT 0 0 0 1 0 0 0
POINTS 1285
DATA ascii
27.5 43.312614 69.865891 2.1280505e-38
27.5 -12.60564 57.072144 0
27.5 -52.618732 -21.981026 1.7231439e-38
27.5 -50.582619 -89.229416 1.7593417e-38
27.5 29.10833 55.842991 0
27.5 48.010147 45.534019 2.14717e-38
27.5 -17.934238 25.652641 1.5721903e-38
27.5 54.266701 -80.559265 2.1747894e-38
27.5 5.1422729 60.064415 0
27.5 4.4846115 60.751549 1.273926e-38
27.5 -46.762981 71.754913 1.8336355e-38
27.5 -47.130344 71.293793 1.9068544e-38
27.5 47.825439 -1.918663 2.2569434e-38
27.5 14.629951 60.484264 0
27.5 -52.505623 -12.70076 1.6314514e-38
27.5 -51.183571 47.013565 1.7600233e-38
27.5 -7.5524559 -6.5608063 1.7705176e-38
27.5 -11.424034 29.247963 1.4255048e-38
27.5 51.276123 -27.56459 1.8388004e-38
27.5 45.071068 62.927525 2.1370553e-38
27.5 54.260574 17.111526 2.1654293e-38
27.5 -54.292404 -26.694687 1.2960673e-38
27.5 51.906853 28.449905 1.6469831e-38
27.5 3.0938721 55.942036 0
27.5 -52.729916 -79.3479 1.612725e-38
27.5 -55.082596 -86.707504 1.667574e-38
27.5 13.396484 3.2423553 1.7524388e-38
27.5 -26.529144 71.026657 0
27.5 -48.448486 64.878571 1.8056909e-38
27.5 54.312637 10.547302 2.1748633e-38
27.5 39.461937 78.360825 2.0732354e-38
27.5 49.571602 33.101433 2.1013243e-38
27.5 -16.139946 60.022217 0
27.5 -57.024872 -35.390625 1.5851749e-38
27.5 -12.033432 2.2407227 1.6143246e-38
27.5 -6.9061737 -9.5405579 1.6696408e-38
27.5 -54.874901 29.82692 1.2322143e-38
27.5 53.98143 -22.774475 2.1474542e-38
27.5 -27.215023 61.117481 0
27.5 -50.914871 -0.92354584 1.6587872e-38
27.5 -7.124794 60.823212 0
27.5 49.122795 66.575699 2.091244e-38
27.5 -34.201973 -22.820648 1.5954185e-38
27.5 -52.481056 68.472443 1.7416912e-38
27.5 35.747406 -16.601265 1.8720773e-38
27.5 53.969017 -13.625771 2.1655713e-38
27.5 49.397507 59.673122 2.0919594e-38
27.5 -49.706741 -16.9767 1.341987e-38
27.5 -52.622528 34.443321 1.6772619e-38
27.5 51.422462 77.578766 1.5455704e-38
27.5 25.522331 59.033539 0
27.5 53.872276 66.399826 2.0820598e-38
27.5 -38.218155 29.498413 1.2140665e-38
27.5 53.706383 59.525898 2.0921396e-38
27.5 34.961372 28.431938 1.2979809e-38
27.5 10.1241 25.065536 1.4363459e-38
27.5 1.5496979 -26.635513 0
27.5 -28.853428 1.7109375 0
27.5 -57.099327 18.326042 1.8055816e-38
27.5 -54.697704 79.497986 1.2694852e-38
27.5 54.193443 32.980881 2.1289464e-38
27.5 -2.6548729 58.844425 0
27.5 -57.100567 68.280289 1.7322927e-38
27.5 55.285179 45.303238 2.1192247e-38
27.5 14.790413 -15.510414 1.8076845e-38
27.5 -6.9088287 -8.450058 1.6877937e-38
27.5 -42.991169 80.300781 1.6591831e-38
27.5 34.322083 59.498058 0
27.5 31.167595 -20.925064 1.853924e-38
27.5 39.402748 29.203217 2.1286968e-38
27.5 12.842377 55.316189 0
27.5 14.465996 -66.495987 1.6769487e-38
27.5 -42.522423 30.214958 1.7693848e-38
27.5 49.81926 17.438934 2.2752401e-38
27.5 -29.903603 56.688057 0
27.5 12.478394 55.279877 0
27.5 -45.164696 -15.035507 1.6407605e-38
27.5 -44.662392 4.2974167 1.2913149e-38
27.5 54.773735 -12.53688 2.1654631e-38
27.5 44.696899 28.953964 2.1007504e-38
27.5 45.08287 32.566711 1.7575108e-38
27.5 -40.459068 88.379631 1.7785692e-38
27.5 20.460526 -1.3261642 1.8627504e-38
27.5 -38.858814 2.778244 1.5311314e-38
27.5 -17.898544 -2.0613403 1.6876858e-38
27.5 44.580666 24.982483 1.8494553e-38
27.5 48.501976 83.160675 1.9812178e-38
27.5 48.819092 82.302246 2.0638346e-38
27.5 46.634666 -17.50032 1.8569538e-38
27.5 -47.741768 30.189056 1.7048504e-38
27.5 49.035049 24.500824 2.1379856e-38
27.5 -48.177017 33.839584 1.2875677e-38
27.5 37.126236 86.711212 1.8988529e-38
27.5 33.664246 -17.980026 1.7526167e-38
27.5 7.8217621 -27.909691 0
27.5 -51.799583 85.06192 1.7601299e-38
27.5 49.728592 10.469643 2.2662348e-38
27.5 -12.440926 6.5101395 0
27.5 44.141121 78.024384 1.9537395e-38
27.5 44.586868 81.638733 1.6925448e-38
27.5 -55.194332 42.037445 1.5199908e-38
27.5 -9.9652023 -74.609543 1.3723765e-38
27.5 51.868256 -18.50563 1.5915564e-38
27.5 -48.037949 83.533867 1.5644414e-38
27.5 -0.97244263 61.779629 0
27.5 51.99144 40.546234 1.7970787e-38
27.5 -47.45837 79.953102 1.7967948e-38
27.5 -56.889771 61.385334 1.7416548e-38
27.5 55.95652 -2.374794 2.2388613e-38
27.5 -45.704182 91.885109 1.8334916e-38
27.5 49.432404 25.887383 2.1655012e-38
27.5 2.5387039 21.349426 1.4347612e-38
27.5 53.871422 82.356705 1.9904385e-38
27.5 42.534386 90.226158 1.9721433e-38
27.5 -52.83218 18.656364 1.7321848e-38
27.5 -38.566822 -59.140411 0
27.5 43.147606 21.204369 2.2293585e-38
27.5 -47.233677 26.307816 1.296821e-38
27.5 -28.915997 -8.1477661 1.6229682e-38
27.5 -52.691925 61.409492 1.7326883e-38
27.5 47.110275 37.393101 1.664777e-38
27.5 10.604889 -14.158066 1.7803119e-38
27.5 22.226845 -15.278358 0
27.5 -52.134159 84.18708 1.7142119e-38
27.5 4.9745865 9.1785736 1.6603516e-38
27.5 -46.606369 22.188606 1.741224e-38
27.5 -52.749443 11.589317 1.6494974e-38
27.5 -5.2864609 9.3329773 1.430366e-38
27.5 31.637543 90.272438 1.9995513e-38
27.5 28.08532 -8.5974808 1.7070584e-38
27.5 -25.908203 -7.5368423 1.6231124e-38
27.5 -48.944153 -4.0233307 1.2411469e-38
27.5 -44.151543 -17.051056 1.4298594e-38
27.5 56.686493 -9.4145126 1.6374423e-38
27.5 51.138329 89.903114 1.7049558e-38
27.5 -54.794365 -17.523376 1.2321053e-38
27.5 -38.837059 22.518127 1.374509e-38
27.5 48.518555 73.634712 1.9261527e-38
27.5 -14.68713 -64.835587 1.4832289e-38
27.5 54.387161 25.884636 2.1472413e-38
27.5 45.967987 -84.204834 1.7833391e-38
27.5 -19.09296 63.384197 0
27.5 7.9785461 87.922318 1.621494e-38
27.5 10.965248 -26.348938 0
27.5 54.808098 24.290825 2.1656803e-38
27.5 -52.009277 25.709579 1.7873935e-38
27.5 55.434319 23.630539 2.1657159e-38
27.5 54.797478 73.018982 2.01763e-38
27.5 45.828987 1.7196655 1.774733e-38
27.5 36.344604 -19.388351 1.7715566e-38
27.5 46.61618 86.53598 1.4811047e-38
27.5 -23.781166 63.162418 0
27.5 -51.919846 75.468758 1.7691337e-38
27.5 14.854393 -20.742661 1.8165423e-38
27.5 -47.525261 -8.8011017 0
27.5 -37.695923 -11.054382 1.5494278e-38
27.5 43.974083 74.056076 1.5636504e-38
27.5 -57.158676 84.841354 1.7232906e-38
27.5 -11.991016 -9.9935379 0
27.5 -34.856926 91.647987 1.9164306e-38
27.5 -42.212517 -56.07785 0
27.5 -4.5916367 -5.6946487 1.7614774e-38
27.5 48.979637 75.109985 1.9627431e-38
27.5 -46.340359 30.255272 1.6316331e-38
27.5 20.209854 9.6896439 1.6696091e-38
27.5 -47.276699 76.023346 1.4075277e-38
27.5 -2.0970917 -8.9361877 0
27.5 53.894829 75.043381 2.0178458e-38
27.5 37.936523 92.440453 1.4533022e-38
27.5 -14.003529 -14.469849 1.696905e-38
27.5 -2.3833542 79.917992 1.6369073e-38
27.5 10.947861 -18.16581 0
27.5 -21.331982 -5.6770248 0
27.5 -49.087593 2.7022781 1.259514e-38
27.5 -54.661732 91.5961 1.5753458e-38
27.5 45.584557 -9.6446533 1.7472527e-38
27.5 -52.454315 27.256805 1.7965779e-38
27.5 25.425217 -15.96212 0
27.5 -50.139099 38.736935 1.2230659e-38
27.5 54.298553 73.376122 2.0359615e-38
27.5 41.369461 21.977364 2.3301653e-38
27.5 18.158569 62.133446 0
27.5 -21.244717 -1.953331 1.632188e-38
27.5 4.860878 86.4132 1.4167542e-38
27.5 3.4798737 -10.410194 0
27.5 44.18515 2.7435303 1.5007699e-38
27.5 54.734459 3.3313599 2.2846739e-38
27.5 9.9373093 -63.878769 0
27.5 -49.84919 88.408661 1.3152971e-38
27.5 -0.7551651 55.283943 0
27.5 -54.997154 -93.481949 1.6218721e-38
27.5 49.529083 3.4148407 2.3304489e-38
27.5 -23.756039 64.015594 0
27.5 40.059189 87.76049 1.9812916e-38
27.5 -52.318756 77.009682 1.7873221e-38
27.5 10.692009 58.838478 0
27.5 45.928276 66.271057 1.6094976e-38
27.5 45.435997 10.145088 1.66525e-38
27.5 36.575317 57.705837 0
27.5 51.676949 -6.5589905 2.0271712e-38
27.5 45.018257 48.116405 1.6830781e-38
27.5 46.601158 -17.77282 1.8569538e-38
27.5 -49.42543 93.36512 1.2419711e-38
27.5 4.3811493 -6.9070663 0
27.5 -5.2688065 29.039818 1.4528763e-38
27.5 -37.571129 7.3518906 1.503402e-38
27.5 30.128044 -2.6092606 1.7893522e-38
27.5 39.462555 32.563042 1.6560257e-38
27.5 52.07135 3.4669342 2.2387202e-38
27.5 45.060959 -15.082436 1.6277235e-38
27.5 -37.178253 23.277374 1.3377754e-38
27.5 5.3771591 10.673454 1.6601375e-38
27.5 56.547997 91.509926 1.4169982e-38
27.5 45.65065 16.997673 1.7388233e-38
27.5 -10.441772 -1.6323395 0
27.5 -41.216381 93.966431 1.4814284e-38
27.5 30.716454 -5.9685822 0
27.5 33.879753 19.46006 1.5682316e-38
27.5 -54.854797 -5.5325317 1.5380345e-38
27.5 -48.959293 -83.443619 1.277343e-38
27.5 -43.367722 89.304199 1.8428906e-38
27.5 46.209518 91.587845 1.508727e-38
27.5 10.839691 7.1201096 0
27.5 -54.756195 -70.94165 0
27.5 -54.958694 51.632175 1.79647e-38
27.5 -49.065552 -8.3779373 1.3603548e-38
27.5 -39.339821 -14.989319 0
27.5 5.5882797 13.316887 1.5865975e-38
27.5 44.504028 43.38953 1.6465209e-38
27.5 -32.358177 -6.2443771 1.4481554e-38
27.5 56.495834 7.0894928 1.729278e-38
27.5 21.210869 16.064072 0
27.5 -55.185295 4.5404663 1.7320408e-38
27.5 -2.3249664 78.481857 1.3434299e-38
27.5 32.166206 5.6763382 0
27.5 -0.89546585 25.788727 1.6852371e-38
27.5 -54.816734 61.099018 1.7508026e-38
27.5 -53.080673 4.4500961 1.7044915e-38
27.5 -20.422485 1.9827957 0
27.5 -42.6749 33.854454 1.4530156e-38
27.5 -22.377621 1.3141479 0
27.5 25.361031 -2.9811172 0
27.5 -49.265747 68.161644 1.2874578e-38
27.5 -31.88843 49.724926 0
27.5 -48.213478 49.519955 1.2323596e-38
27.5 -6.5790215 21.513535 1.4343293e-38
27.5 46.086533 -5.3069458 1.6554158e-38
27.5 -20.217266 4.8971786 1.5130899e-38
27.5 -39.730099 7.0456085 1.3749396e-38
27.5 31.473236 52.908432 0
27.5 -42.028496 26.287064 1.4448026e-38
27.5 29.129021 5.7388992 0
27.5 -4.171772 24.805016 1.2609207e-38
27.5 -47.724548 44.882065 1.2596946e-38
27.5 -18.542336 13.35434 1.503584e-38
27.5 51.853706 52.608608 1.574982e-38
27.5 45.780334 -25.477821 1.6643138e-38
27.5 44.028099 93.515282 1.9695275e-38
27.5 -27.144615 15.405525 1.4666695e-38
27.5 31.440254 19.549385 1.6142576e-38
27.5 -20.521694 5.7942657 1.5681195e-38
27.5 -34.382648 -15.178978 0
27.5 -8.7927666 26.016212 2.0175371e-38
27.5 -23.566254 67.436737 0
27.5 -40.743835 84.040451 1.3887297e-38
27.5 37.460922 22.730591 0
27.5 13.412956 12.516106 1.6052157e-38
27.5 -48.257534 11.237549 1.2967161e-38
27.5 -11.881519 -1.8737869 0
27.5 8.7668915 -5.9002991 0
27.5 -32.843674 -14.59446 0
27.5 45.436607 -75.610901 1.664421e-38
27.5 51.813896 50.165562 2.229107e-38
27.5 41.993095 13.861549 1.7797757e-38
27.5 53.484428 80.538193 2.1002126e-38
27.5 49.007401 80.637901 2.1184368e-38
27.5 37.416527 82.25209 1.5635089e-38
27.5 35.697021 -10.052483 0
27.5 -6.7738113 5.3789978 0
27.5 -2.2286682 86.995132 1.5012779e-38
27.5 -36.520271 60.682144 0
27.5 7.0533371 21.903221 1.3796244e-38
27.5 0.94897842 59.811516 0
27.5 -10.078548 54.060562 1.2463022e-38
27.5 -20.15152 -20.679443 1.6875065e-38
27.5 -33.453674 -11.973801 0
27.5 46.059921 -76.977692 1.8018142e-38
27.5 26.34478 -69.613754 0
27.5 51.881477 -71.519043 1.6737456e-38
27.5 -21.410686 9.9542084 1.5586496e-38
27.5 0.59025955 -21.899246 1.6499028e-38
27.5 19.396927 54.757965 0
27.5 -15.087536 -6.4070206 1.5500375e-38
27.5 -35.615356 68.659401 0
27.5 -22.527004 55.986847 0
27.5 -32.855774 -56.566467 0
27.5 -3.2779045 20.575729 1.1866607e-38
27.5 -9.4570847 3.3442459 0
27.5 -45.932419 67.486115 1.2048099e-38
27.5 -21.285957 -72.877731 1.4732522e-38
27.5 -33.848053 67.556999 0
27.5 23.078293 0.63059235 1.7156328e-38
27.5 11.064438 -10.078362 0
27.5 -52.308277 82.328362 1.8059405e-38
27.5 8.0671387 -21.074799 1.5305531e-38
27.5 38.627739 25.482796 1.6927634e-38
27.5 9.473259 -10.980034 0
27.5 -33.737377 -56.21582 0
27.5 -47.013969 -23.760239 0
27.5 9.5535278 -75.475647 0
27.5 -6.5036659 3.1125717 0
27.5 -49.492889 -75.939682 1.2592256e-38
27.5 -48.528019 -32.674408 0
27.5 -34.373676 64.409195 0
27.5 54.950783 48.952766 2.2186334e-38
27.5 21.966446 -8.2165909 1.4477624e-38
27.5 -4.9201813 59.018993 0
27.5 26.143433 -73.262238 0
27.5 5.3256226 25.973221 1.6115526e-38
27.5 44.938446 39.381969 2.1817916e-38
27.5 -4.5845375 61.334843 0
27.5 43.169579 38.868744 1.6555597e-38
27.5 21.669189 -9.4932861 1.8349122e-38
27.5 7.8404694 -11.216873 0
27.5 -48.378689 40.319763 1.4253582e-38
27.5 -46.215942 40.119629 1.3334867e-38
27.5 -33.470005 3.2527466 0
27.5 -14.508034 15.3508 1.5679056e-38
27.5 -49.132904 -75.079315 1.2317108e-38
27.5 -47.658863 0.91228485 0
27.5 -48.44191 -73.889679 0
27.5 44.535461 -20.76506 1.3988894e-38
27.5 24.278748 4.1233215 0
27.5 -54.948761 54.27494 0
27.5 45.109238 -33.847916 1.5182012e-38
27.5 2.20681 28.800034 1.6454445e-38
27.5 44.604477 53.497017 1.4813631e-38
27.5 24.69101 4.2927094 0
27.5 -34.363171 23.015312 1.3836931e-38
27.5 -48.170162 54.819321 1.195769e-38
27.5 51.591309 66.281311 1.6393047e-38
27.5 0.53459549 28.355606 1.4164661e-38
27.5 26.997742 23.411278 1.540681e-38
27.5 -1.7348328 53.22176 0
27.5 2.7495193 -82.027359 1.5104549e-38
27.5 -12.859131 10.699333 1.5129471e-38
27.5 3.9190445 -0.67192841 0
27.5 -9.5870361 -59.955383 0
27.5 5.1236649 -4.4535828 0
27.5 7.6536102 28.36042 1.4351213e-38
27.5 -8.3313026 -69.674576 0
27.5 42.29071 65.632942 1.4351587e-38
27.5 5.8439789 3.6757965 0
27.5 -33.746319 53.420158 0
27.5 -6.0163422 -4.1698074 1.7703388e-38
27.5 30.535248 -82.708832 1.7096208e-38
27.5 -10.964859 22.294754 1.406563e-38
27.5 -0.43698883 87.303741 1.8237468e-38
27.5 -5.0913429 86.462585 1.5381198e-38
27.5 -24.995476 -25.995399 0
27.5 -16.2029 -76.882156 0
27.5 33.660141 -27.106606 0
27.5 -47.044334 17.637131 0
27.5 43.996132 -3.4322891 1.3639505e-38
27.5 -19.669346 -61.453888 0
27.5 13.938477 -2.207283 0
27.5 -30.889082 90.34008 1.2878213e-38
27.5 31.351204 -65.898682 1.5017774e-38
27.5 41.849617 54.951118 1.1998093e-38
27.5 13.003159 -59.149338 1.5757852e-38
27.5 39.059509 18.019775 1.2185619e-38
27.5 26.870445 -59.211304 1.5939729e-38
27.5 -42.963665 -22.636108 0
27.5 40.255005 60.717308 1.4585341e-38
27.5 -0.46002197 -19.7155 1.5855465e-38
27.5 43.916954 59.087166 1.3343193e-38
27.5 -8.0659904 -68.083908 0
27.5 18.990189 52.93198 0
27.5 2.9699631 -15.390633 0
27.5 13.920692 -57.452621 1.4744064e-38
27.5 -38.0023 83.195168 1.9326515e-38
27.5 44.821419 36.939213 2.0812714e-38
27.5 42.521034 -9.8009262 0
27.5 -48.889038 -24.742874 1.3053961e-38
27.5 25.878639 2.3638 0
27.5 -20.933075 -9.6066208 0
27.5 21.140526 3.2945938 0
27.5 -29.116516 -1.6989288 0
27.5 -42.051487 76.066452 1.2419022e-38
27.5 34.308891 81.374489 1.4727533e-38
27.5 24.712555 -86.533768 1.646126e-38
27.5 -52.037086 50.612892 1.7588059e-38
27.5 38.473663 74.126801 1.2518842e-38
27.5 28.288727 -11.441833 0
27.5 -43.569763 65.863174 0
27.5 19.308235 7.2016373 1.6606031e-38
27.5 -27.707848 -74.28302 0
27.5 44.553421 -33.711517 1.4999413e-38
27.5 -6.8726501 86.033218 1.6762701e-38
27.5 32.87336 -6.7565384 0
27.5 -13.666119 -5.5855789 1.6602417e-38
27.5 -28.753132 -3.3420944 0
27.5 14.610992 -74.780518 1.3538672e-38
27.5 44.945534 -30.503983 1.5548637e-38
27.5 -16.183338 -76.072205 0
27.5 -8.6100197 58.017639 0
27.5 2.894516 -13.915138 0
27.5 26.943649 88.767441 0
27.5 -7.4591064 -14.653786 0
27.5 -3.6155281 -77.904617 0
27.5 -49.391716 -31.253967 1.2595844e-38
27.5 39.865288 23.831764 1.7767055e-38
27.5 -5.15308 82.062469 1.4904373e-38
27.5 30.693703 13.105392 0
27.5 13.582268 -10.684502 0
27.5 -45.340233 -84.980026 1.343535e-38
27.5 -51.57832 55.002575 1.8607903e-38
27.5 -48.38187 -92.122421 1.2776294e-38
27.5 6.7476196 28.371361 1.4534161e-38
27.5 -52.858955 -57.682663 0
27.5 20.450752 64.869324 0
27.5 -42.595139 62.250282 0
27.5 -29.733517 -18.178017 0
27.5 3.9752121 -58.971222 1.4093282e-38
27.5 -43.5093 1.0305862 0
27.5 -29.413193 -41.851822 1.456183e-38
27.5 42.72982 -86.172073 1.6647457e-38
27.5 2.2859726 88.940445 0
27.5 -38.351795 12.818466 0
27.5 -44.547913 -86.088333 1.6748997e-38
27.5 45.554916 -46.493164 1.6771648e-38
27.5 31.572662 0.59053802 0
27.5 -5.0286064 -82.150757 1.4366635e-38
27.5 32.25634 -14.925919 0
27.5 50.908554 -73.875458 1.7841284e-38
27.5 -6.6950951 -14.155777 0
27.5 18.487877 -63.852737 0
27.5 16.125366 -6.3072662 0
27.5 -46.361118 -90.510101 1.3601754e-38
27.5 -17.220425 -53.080078 1.4928443e-38
27.5 12.658195 -6.7030716 0
27.5 28.040512 -23.39193 0
27.5 48.803177 49.187973 1.7481487e-38
27.5 18.334541 -30.41214 1.2620687e-38
27.5 40.904655 18.439804 1.2173377e-38
27.5 -14.328327 -18.579216 0
27.5 22.277657 -4.6113434 0
27.5 -0.8077774 61.533001 0
27.5 41.364815 -86.274673 1.5636542e-38
27.5 55.406799 -53.382004 1.7410496e-38
27.5 -27.614754 -85.083008 1.2968261e-38
27.5 -5.8026047 -65.233459 0
27.5 -0.36959457 81.831482 1.5999917e-38
27.5 -27.401752 10.794952 1.5126234e-38
27.5 -49.524406 -54.979675 1.4008304e-38
27.5 -35.838264 -86.796158 1.4900774e-38
27.5 25.856941 57.765942 0
27.5 8.5695724 -56.006088 1.3815242e-38
27.5 -3.6463318 -82.20517 1.5011649e-38
27.5 -47.040428 -70.412369 1.1975634e-38
27.5 -27.429283 9.2197952 1.5310625e-38
27.5 5.919075 -31.113068 1.3729174e-38
27.5 -17.692741 -61.933807 0
27.5 -0.61196136 58.379902 0
27.5 36.490974 14.895363 0
27.5 36.57029 -83.323822 1.7372074e-38
27.5 -6.5843124 -64.221603 0
27.5 -20.89703 -66.952469 0
27.5 18.679352 3.2281494 0
27.5 54.221291 -59.432419 1.695095e-38
27.5 53.531219 -48.394592 1.6671849e-38
27.5 -0.39232635 89.212807 1.3920838e-38
27.5 -22.233143 51.560951 0
27.5 17.505615 3.4787598 1.2178469e-38
27.5 -12.75246 -81.407944 1.427336e-38
27.5 29.834351 -28.827194 0
27.5 26.589394 -78.585541 1.584356e-38
27.5 -35.589233 12.132454 0
27.5 38.828384 -13.590233 0
27.5 -3.0881081 -54.702301 1.5018122e-38
27.5 -35.432877 87.119659 2.0157692e-38
27.5 -0.80906677 10.55648 0
27.5 -54.967663 -43.031143 1.2806834e-38
27.5 32.684799 83.123856 1.3067325e-38
27.5 -37.785793 -28.748703 0
27.5 38.925354 -12.313171 0
27.5 -28.803741 52.380756 0
27.5 25.770958 -6.1529083 0
27.5 6.1707993 -33.132401 1.4558579e-38
27.5 6.0349884 -61.748856 1.4277324e-38
27.5 -33.462669 -28.877899 1.2254038e-38
27.5 24.981064 -6.6675797 0
27.5 -9.4231453 66.891388 0
27.5 18.863792 -49.772369 1.234301e-38
27.5 1.1415787 6.3750763 0
27.5 7.9328537 -34.678635 1.5941516e-38
27.5 -1.8506966 -2.1711578 1.3837993e-38
27.5 27.328583 -78.91954 1.5752087e-38
27.5 41.11676 -46.96994 1.2896545e-38
27.5 -32.767754 15.435066 1.4115665e-38
27.5 38.054626 -74.220398 1.639924e-38
27.5 19.035889 -75.434341 0
27.5 -54.625656 -47.406036 0
27.5 -39.882706 -8.8272552 0
27.5 26.277161 -38.616623 1.2345535e-38
27.5 42.97097 -71.394592 1.6395273e-38
27.5 -30.89979 -51.773026 1.4376002e-38
27.5 30.078194 9.461441 0
27.5 14.284904 -47.750137 1.6124471e-38
27.5 25.413391 -83.25708 1.5537862e-38
27.5 17.902962 -81.440308 1.5106372e-38
27.5 -31.377014 -81.670197 1.3604635e-38
27.5 19.009865 -49.155167 0
27.5 -5.3565483 -25.474121 1.6223146e-38
27.5 33.812996 44.683987 0
27.5 32.418907 -24.105972 0
27.5 -28.909801 67.036697 0
27.5 -30.130928 67.240753 0
27.5 -20.130062 49.802387 0
27.5 16.983276 -81.129898 1.3909981e-38
27.5 -39.525517 -83.561249 1.3797651e-38
27.5 -4.5102272 -16.14447 0
27.5 -42.170322 -29.373398 0
27.5 46.137054 -71.37439 1.6761549e-38
27.5 41.623901 -52.235413 1.584825e-38
27.5 2.8082962 -65.209656 0
27.5 -38.29483 -1.6944504 0
27.5 42.876808 -30.414703 1.3367931e-38
27.5 -42.130684 -73.301636 1.2618138e-38
27.5 -48.799728 60.929813 1.3798349e-38
27.5 50.039841 -64.091461 1.6029002e-38
27.5 -5.6279945 -17.569817 0
27.5 -5.0484161 -60.946899 1.4085715e-38
27.5 -10.064083 -79.583832 0
27.5 -35.532722 -53.186066 0
27.5 -28.194565 -67.647919 1.1972431e-38
27.5 -50.152298 6.146698 1.3438168e-38
27.5 23.963493 -82.567566 1.4255755e-38
27.5 29.757217 2.7814789 0
27.5 -26.437092 -79.011276 1.3997835e-38
27.5 -32.76503 8.0108414 1.4942188e-38
27.5 -51.050022 -38.882599 1.3173095e-38
27.5 -26.315945 -24.460808 1.9163726e-38
27.5 21.895546 -54.31926 1.5941517e-38
27.5 15.022385 7.4988785 0
27.5 50.677467 -43.322601 1.6855151e-38
27.5 31.973869 85.511566 2.0251694e-38
27.5 31.442673 -12.042305 0
27.5 -15.718517 -50.499115 1.5021726e-38
27.5 19.193352 -43.28804 1.4466759e-38
27.5 -25.101234 -50.054031 1.5667814e-38
27.5 2.5770874 64.23214 0
27.5 36.223709 -45.143814 1.5573106e-38
27.5 -25.201046 -51.066208 1.5850408e-38
27.5 16.626549 52.281654 0
27.5 -27.702461 -68.242859 1.2341579e-38
27.5 -44.551498 25.137581 1.3896258e-38
27.5 -26.442093 -11.913246 0
27.5 -39.535629 -30.84639 1.2523072e-38
27.5 -26.955795 -11.071022 0
27.5 35.94223 7.6509323 0
27.5 15.339134 -31.590408 1.4283085e-38
27.5 24.810951 -24.813271 1.3650326e-38
27.5 -8.4307747 -53.875351 1.2437365e-38
27.5 34.922981 -86.323776 1.4715304e-38
27.5 46.7108 -39.616226 1.6395643e-38
27.5 30.159019 -12.664871 0
27.5 -43.896854 51.750923 0
27.5 -35.046806 -31.338547 1.3640598e-38
27.5 -36.228027 -67.010101 0
27.5 40.093864 -35.896988 1.4923759e-38
27.5 51.961365 -0.58811951 2.3483145e-38
27.5 -45.002586 -73.511734 1.2427654e-38
27.5 15.48069 -53.934509 1.5942595e-38
27.5 10.984901 -3.4145279 0
27.5 40.180893 -65.078186 1.5385111e-38
27.5 -38.29213 -69.956558 0
27.5 31.729111 26.091103 1.4579919e-38
27.5 18.747955 -61.10498 1.335788e-38
27.5 20.990631 -44.176086 1.5295429e-38
27.5 48.916084 -57.123795 1.3076219e-38
27.5 -12.322971 -84.419647 0
27.5 1.9161682 -1.1148071 0
27.5 38.55883 51.643471 0
27.5 25.454758 -29.371445 1.4560762e-38
27.5 39.843178 -21.083725 1.2465458e-38
27.5 -45.314896 50.057575 0
27.5 18.971931 -85.469528 1.5993089e-38
27.5 51.972061 21.797012 2.2753102e-38
27.5 -24.715195 -55.347748 0
27.5 37.870735 46.668831 0
27.5 32.029335 65.799255 0
27.5 -12.777325 -61.015152 0
27.5 -43.332169 -64.770874 0
27.5 27.171585 -66.085999 0
27.5 11.309357 66.015244 0
27.5 0.70326614 66.855721 0
27.5 -33.763283 55.727146 0
27.5 -21.896896 -78.199371 1.2703499e-38
27.5 17.832939 -27.069511 1.4191617e-38
27.5 -36.435059 -77.472198 0
27.5 -7.5406723 -55.512512 1.5018472e-38
27.5 -13.561832 66.013184 0
27.5 17.82795 -77.284042 0
27.5 3.0338211 -47.919861 1.5941869e-38
27.5 26.033516 -55.167511 1.418945e-38
27.5 43.183952 -67.96106 1.4277291e-38
27.5 -53.097744 -64.585526 0
27.5 48.719475 -57.74176 1.3076219e-38
27.5 28.165543 -43.158249 1.4743346e-38
27.5 45.639793 -39.552994 1.5660596e-38
27.5 51.396957 -55.88179 1.5747394e-38
27.5 -10.107288 -21.292633 1.5303725e-38
27.5 31.829178 -38.296036 1.3084176e-38
27.5 38.583244 -69.462463 1.4186171e-38
27.5 -36.592171 -85.143021 1.3891663e-38
27.5 -10.879055 -21.78775 1.5855821e-38
27.5 -30.713417 63.153698 0
27.5 39.349358 -22.087303 0
27.5 -39.499279 -2.2104187 0
27.5 27.91851 64.881989 0
27.5 -27.548313 49.460129 0
27.5 4.1824722 92.447289 0
27.5 -23.033585 -84.036224 1.3883733e-38
27.5 -11.293587 -49.581299 1.3725559e-38
27.5 10.533936 -29.951553 0
27.5 10.70871 -1.3262177 0
27.5 -54.182861 -39.343155 0
27.5 12.782921 64.29451 0
27.5 -34.613632 -76.441376 0
27.5 42.712425 -91.228485 1.7554293e-38
27.5 35.663803 -37.736649 1.4284172e-38
27.5 41.997803 63.97171 1.2343813e-38
27.5 -11.737041 52.012775 0
27.5 -27.612892 -28.954529 1.502606e-38
27.5 -1.0334091 -67.908829 0
27.5 -41.479267 38.134239 1.3093977e-38
27.5 -31.860428 -88.582764 1.4522989e-38
27.5 35.089447 -34.986588 1.4376368e-38
27.5 20.637444 -19.100334 0
27.5 11.071541 -41.930038 1.5663856e-38
27.5 39.557838 44.751019 1.1910238e-38
27.5 12.01741 63.308445 0
27.5 -53.768482 -64.080307 0
27.5 -6.0301437 46.836639 0
27.5 12.567268 -51.03035 1.4465299e-38
27.5 33.880135 -75.264984 1.5845706e-38
27.5 47.502769 69.070099 1.5275238e-38
27.5 -31.016329 -75.705185 0
27.5 -54.89222 0.44882965 1.8143005e-38
27.5 40.78289 43.153137 1.3195934e-38
27.5 20.156967 -19.528877 0
27.5 25.556572 65.058456 0
27.5 38.288635 36.872154 1.4942595e-38
27.5 33.063316 -32.482681 1.4835194e-38
27.5 48.574608 -51.538467 1.5660977e-38
27.5 -40.814484 -49.472824 1.4196296e-38
27.5 14.197342 -37.272949 1.4375634e-38
27.5 12.706169 67.908081 0
27.5 6.4360275 -84.892761 1.2597676e-38
27.5 -15.668915 -71.807205 0
27.5 49.924179 -39.969193 1.5005156e-38
27.5 7.0246277 -38.222107 1.5110671e-38
27.5 -39.596115 -74.05426 0
27.5 35.154663 32.786514 1.6135009e-38
27.5 -40.092632 70 0
27.5 -54.93425 23.178787 1.8605059e-38
27.5 35.530853 -49.799194 1.4373123e-38
27.5 -15.887955 31.434143 1.5487093e-38
27.5 -10.994133 47.149891 0
27.5 9.5988235 30.046158 2.0800598e-38
27.5 3.5468674 -1.0307846 0
27.5 -20.20734 -11.8265 0
27.5 -39.7258 -35.453461 1.4746592e-38
27.5 -9.7488594 -79.408737 0
27.5 38.539467 66.584381 0
27.5 -3.0189629 -85.601791 1.2778479e-38
27.5 36.643105 -50.957245 1.3174214e-38
27.5 29.025406 -36.440567 1.4744785e-38
27.5 37.976173 38.853333 1.2647786e-38
27.5 -8.582058 82.670731 1.2079469e-38
27.5 29.240883 -33.079666 1.3729559e-38
27.5 -22.158146 -85.191467 1.4616982e-38
27.5 -7.5817184 94.674751 0
27.5 -38.295727 33.850288 1.511292e-38
27.5 26.986366 -69.576065 0
27.5 6.0905991 -41.209656 1.4931334e-38
27.5 -8.0228081 78.949272 0
27.5 35.156662 -71.37001 1.3446822e-38
27.5 -34.921638 -64.016663 0
27.5 41.59198 48.56469 1.1816598e-38
27.5 -22.773342 -61.776733 0
27.5 23.754692 -39.16684 1.3911774e-38
27.5 18.467201 -87.057175 1.6635949e-38
27.5 36.44696 -48.75383 1.4649709e-38
27.5 -7.0528793 52.703056 0
27.5 41.238617 -74.294769 1.7223614e-38
27.5 -43.737404 -68.815231 1.1880201e-38
27.5 5.5458298 93.618919 0
27.5 -3.0970116 -14.658661 0
27.5 2.0171127 -36.824142 1.5757849e-38
27.5 -14.970661 52.411919 0
27.5 33.050858 -48.773544 1.4650071e-38
27.5 -49.607872 -45.915558 1.3458e-38
27.5 -1.6559944 -42.437164 1.5297587e-38
27.5 -8.9812775 -46.38446 1.5483404e-38
27.5 7.3600693 30.59668 1.9783918e-38
27.5 7.0122604 82.967285 0
27.5 -42.301006 55.111507 0
27.5 2.5974045 77.953545 0
27.5 52.3162 -51.023071 1.4642106e-38
27.5 -1.4859772 50.450176 0
27.5 -42.295422 -6.6858597 0
27.5 8.1833725 -41.269226 1.4284877e-38
27.5 -5.4735794 -40.421936 1.5573807e-38
27.5 2.5842438 46.784698 0
27.5 -10.533504 90.926865 0
27.5 -7.0277901 -20.888939 1.5487037e-38
27.5 28.02729 -52.904831 1.3450798e-38
27.5 -44.033096 44.003288 1.2540087e-38
27.5 32.761658 -40.983322 1.4098331e-38
27.5 36.290817 -21.937904 0
27.5 -41.063828 -75.428146 1.3627999e-38
27.5 -32.166801 -84.753479 1.5000887e-38
27.5 -41.068703 68.597061 0
27.5 -16.127438 66.35125 0
27.5 -4.8677177 -53.307449 1.3913209e-38
27.5 -15.343941 -43.810928 1.6035501e-38
27.5 24.298927 -52.790237 1.4559303e-38
27.5 -46.183739 26.623398 1.2410748e-38
27.5 -30.392197 -69.039383 1.2522719e-38
27.5 -6.5368347 51.465553 0
27.5 30.194054 -48.39476 1.4281996e-38
27.5 -0.9095726 -85.166382 1.2782427e-38
27.5 33.285393 -35.329666 1.4837352e-38
27.5 51.338165 71.107697 2.1369102e-38
27.5 0.76446915 -48.413956 1.5570559e-38
27.5 36.201553 -31.891281 1.335321e-38
27.5 35.801682 -31.567093 1.3998945e-38
27.5 -41.299263 40.14769 0
27.5 44.105057 -38.53746 1.5847864e-38
27.5 38.796654 -8.5965424 0
27.5 -21.388355 51.277184 0
27.5 -51.647251 -41.918335 0
27.5 10.574753 -82.784103 1.583673e-38
27.5 37.94519 -61.214218 1.2619594e-38
27.5 10.16993 -81.632782 1.224684e-38
27.5 -8.5155563 -42.38501 1.6311728e-38
27.5 -8.2244835 -45.101379 1.5575602e-38
27.5 -27.68084 -29.969299 1.5209014e-38
27.5 46.313644 -54.587097 1.4923043e-38
27.5 -41.600113 53.608101 0
27.5 49.661858 -69.392426 1.5743805e-38
27.5 -47.723732 7.6042023 0
27.5 -10.572567 81.890198 0
27.5 35.080544 50.387863 0
27.5 -31.757841 86.815506 0
27.5 -30.429283 -29.674164 1.4929907e-38
27.5 -26.361778 -15.019943 0
27.5 -32.178993 12.529999 1.1998006e-38
27.5 36.134132 -42.39389 1.3455133e-38
27.5 -8.9115677 -40.207321 1.5022431e-38
27.5 0.94824219 80.019356 1.4625303e-38
27.5 -29.213245 -24.825256 1.9807303e-38
27.5 -26.28587 49.957962 0
27.5 35.649902 34.401634 1.4759641e-38
27.5 3.867836 -33.398727 1.5111392e-38
27.5 10.721504 49.487179 0
27.5 30.285118 76.444702 0
27.5 -11.871033 32.021805 1.5946276e-38
27.5 37.983742 34.0849 1.915981e-38
27.5 46.490669 -48.005707 1.5111753e-38
27.5 -6.1184883 76.671211 0
-14.096188 62.5 -90.004059 0
-12.810677 62.5 -93.968903 1.5213383e-38
-10.161057 62.5 -90.501144 0
-7.1319923 62.5 31.271011 1.3822742e-38
1.4235859 62.5 -45.187958 1.6590403e-38
0.42637825 62.5 -79.467361 1.3825624e-38
3.2410679 62.5 -87.480545 0
11.446468 62.5 31.081253 1.3915303e-38
11.639153 62.5 -91.117294 1.5208556e-38
16.537521 62.5 45.983994 1.7605608e-38
4.5266685 62.5 -84.302673 1.4841928e-38
14.04246 62.5 54.126823 1.4930865e-38
-0.17866325 62.5 12.605644 1.6129776e-38
14.337763 62.5 45.694103 1.7789634e-38
-6.3308411 62.5 -46.361664 1.3180604e-38
3.7037334 62.5 -83.617783 1.5302542e-38
-20.967598 62.5 -49.118088 1.8064059e-38
16.379108 62.5 31.081429 1.2716763e-38
-4.7266655 62.5 -49.253845 1.6498201e-38
16.418446 62.5 23.846497 1.6036172e-38
8.517458 62.5 26.81897 1.59443e-38
16.468117 62.5 -91.372177 1.4839054e-38
5.1115913 62.5 12.237984 1.6220901e-38
4.4540615 62.5 33.532547 1.6313802e-38
21.743481 62.5 59.757607 1.7513057e-38
-10.94445 62.5 -49.067993 1.7143571e-38
11.776244 62.5 -76.534256 1.4195497e-38
9.2352619 62.5 24.819733 1.6127632e-38
3.5702 62.5 -51.488815 1.401035e-38
-4.8857117 62.5 -66.330856 1.6866635e-38
-8.3058891 62.5 -50.680374 1.6591105e-38
-19.81226 62.5 -39.994553 1.3086244e-38
-8.3369102 62.5 -51.736313 1.6129771e-38
19.617334 62.5 -46.205902 1.2351217e-38
13.80969 62.5 28.578865 1.5852835e-38
-3.5189743 62.5 28.49733 1.6221966e-38
9.122797 62.5 33.690109 1.6221253e-38
20.669815 62.5 59.62664 1.788183e-38
-21.200718 62.5 -58.298416 1.7421217e-38
18.031765 62.5 -86.260483 1.4931616e-38
4.6351833 62.5 -74.272507 1.5302182e-38
6.4774723 62.5 -0.89480591 1.6313449e-38
-4.6005898 62.5 -53.802414 1.677587e-38
-21.170494 62.5 -66.167252 1.7972959e-38
4.347187 62.5 -11.863617 1.5945028e-38
16.396759 62.5 23.730789 1.6036172e-38
4.4202862 62.5 28.80722 1.649819e-38
-17.103855 62.5 -44.431824 1.6682596e-38
5.3402252 62.5 -75.437302 1.5302182e-38
-13.172661 62.5 -67.16684 1.5668092e-38
5.2566395 62.5 -46.334686 1.3822742e-38
-19.685154 62.5 -58.451172 1.7880406e-38
-10.47628 62.5 -86.881714 1.5210789e-38
3.2026997 62.5 -12.036308 1.6314168e-38
12.888175 62.5 -66.393448 1.3179885e-38
18.3815 62.5 53.717548 1.7882193e-38
1.5728912 62.5 17.642784 1.6588594e-38
13.849018 62.5 -67.571045 1.4470275e-38
-21.47575 62.5 -53.313354 1.742085e-38
3.0120049 62.5 20.118126 1.6589314e-38
-6.9577751 62.5 -55.388687 1.6591825e-38
4.4803829 62.5 -53.849838 1.5669167e-38
1.091835 62.5 -53.218948 1.5945382e-38
-14.515373 62.5 -66.495377 1.4838686e-38
13.531729 62.5 -72.386627 1.5024513e-38
6.5930252 62.5 -50.097504 1.5761714e-38
-14.924519 62.5 -67.238144 1.5208191e-38
8.4064503 62.5 20.073921 1.6495682e-38
1.2360573 62.5 -53.766449 1.6221972e-38
13.963756 62.5 14.65786 1.3546874e-38
-10.207668 62.5 -25.511459 1.7235391e-38
-4.4135151 62.5 -44.364929 1.520891e-38
19.272564 62.5 -50.241562 1.5114917e-38
15.728947 62.5 6.5260849 1.566809e-38
-3.4313221 62.5 33.973732 1.6681865e-38
1.7598495 62.5 -40.371628 1.483906e-38
-1.6620235 62.5 -2.8890762 1.5668432e-38
-21.217613 62.5 -62.795883 1.7420498e-38
-0.28636932 62.5 -35.026047 1.6314518e-38
12.926138 62.5 41.93708 1.7881476e-38
-14.500404 62.5 -40.181091 1.6497118e-38
18.25642 62.5 -64.256973 1.4562819e-38
7.2390614 62.5 -32.242447 1.456138e-38
2.5158424 62.5 -64.19278 1.5578769e-38
6.2359467 62.5 27.48394 1.6497829e-38
-7.4983559 62.5 -43.154312 1.4010364e-38
19.244247 62.5 -78.824554 1.2902596e-38
15.002209 62.5 34.387383 1.5759909e-38
18.566364 62.5 -40.228317 1.3639083e-38
0.8781662 62.5 -91.030899 1.5300736e-38
-11.760231 62.5 -24.831596 1.7143195e-38
7.723114 62.5 -64.394974 1.530074e-38
-8.434391 62.5 -61.494659 1.474612e-38
-9.1795502 62.5 -27.26963 1.7051003e-38
16.398878 62.5 1.7009888 1.2532371e-38
-10.018188 62.5 14.760185 1.6774776e-38
-2.2767849 62.5 -19.274269 1.6498189e-38
-1.589819 62.5 1.0521774 1.6590385e-38
19.52087 62.5 -44.626068 1.3918896e-38
9.4604378 62.5 -40.312897 1.4747215e-38
16.568211 62.5 34.700348 1.5759553e-38
9.5081387 62.5 -46.421783 0
-19.065212 62.5 -30.318939 1.6312353e-38
8.2466602 62.5 -62.846634 1.5393296e-38
6.0474186 62.5 -79.394577 1.4285532e-38
-0.80632591 62.5 -85.270508 1.5946824e-38
13.202082 62.5 50.224522 1.7789278e-38
10.039145 62.5 -29.800934 1.5575529e-38
-4.8567238 62.5 -14.6642 1.6865901e-38
-19.19775 62.5 11.666656 1.622016e-38
19.241428 62.5 -35.163391 1.5207468e-38
-19.548038 62.5 -64.876266 1.4931228e-38
10.483568 62.5 17.61982 1.5945031e-38
-18.997517 62.5 -89.635864 1.1892463e-38
-0.82797813 62.5 -7.1428375 1.6034698e-38
-4.5675507 62.5 -42.4487 1.447134e-38
6.4988194 62.5 -90.79126 1.4286954e-38
16.487728 62.5 -43.527084 0
4.7938404 62.5 -64.777771 1.4194744e-38
-0.67566681 62.5 -5.339241 1.5574439e-38
-11.894035 62.5 -34.964691 1.7420501e-38
0.76389885 62.5 -32.904861 1.6589314e-38
12.898099 62.5 -57.59285 0
-18.77512 62.5 -53.641846 1.7328305e-38
-1.7344227 62.5 -22.944885 1.6866622e-38
13.581867 62.5 67.588356 1.5670588e-38
11.358536 62.5 -46.558258 1.3456488e-38
-14.271347 62.5 -57.604034 1.5575881e-38
-1.2311668 62.5 -53.049423 1.5668079e-38
19.960913 62.5 27.25573 1.4840499e-38
12.812075 62.5 -61.977554 1.5116709e-38
-4.5914574 62.5 -27.031067 1.2807865e-38
-6.3421364 62.5 -9.6441193 1.6958807e-38
-6.3767357 62.5 -58.731201 1.6591828e-38
14.619821 62.5 -81.577164 1.244269e-38
10.425226 62.5 -1.668045 1.5483701e-38
13.198771 62.5 7.4909668 1.50238e-38
-11.387386 62.5 -1.6028442 1.7143558e-38
-15.694668 62.5 14.649055 1.7789644e-38
7.376585 62.5 -44.528336 1.4931969e-38
12.538859 62.5 -35.490448 1.5759556e-38
-13.65601 62.5 -32.132935 1.7420495e-38
3.8376923 62.5 4.7157898 1.6036156e-38
-15.752914 62.5 15.472366 1.7973675e-38
4.3832817 62.5 7.6006317 1.4931233e-38
1.2395554 62.5 -51.740585 1.5116701e-38
-7.6273689 62.5 -19.362633 1.6958452e-38
-5.0574722 62.5 -25.516731 1.6680084e-38
-19.692913 62.5 -93.677429 1.3827449e-38
-11.542461 62.5 4.0143509 1.7141049e-38
6.6453152 62.5 -7.3437424 1.5299658e-38
-6.1477737 62.5 25.194008 1.6498908e-38
-3.4927387 62.5 0.99068451 1.6683299e-38
-5.7512054 62.5 -64.145523 1.6130498e-38
-12.827267 62.5 4.5441971 1.6126897e-38
-5.1335602 62.5 20.50087 1.6407439e-38
-27.5 -54.5075 -73.95993 2.1011435e-38
-27.5 -47.465523 -89.930908 2.1364798e-38
-27.5 -49.641655 -79.783234 2.0456455e-38
-27.5 -49.629723 -66.558243 2.0275666e-38
-27.5 -52.162285 -87.345474 2.063798e-38
-27.5 -41.791382 -87.498932 1.8345874e-38
-27.5 56.87693 -29.563568 1.8518239e-38
-27.5 -51.490829 -71.402405 1.563039e-38
-27.5 -54.469604 -29.063126 2.3116171e-38
-27.5 -43.3125 71.920082 2.0450743e-38
-27.5 -46.960648 -61.274429 1.7008688e-38
-27.5 -52.098381 -42.33432 2.0734132e-38
-27.5 -47.552986 -44.877808 2.3024305e-38
-27.5 -49.641739 -21.829643 2.0460418e-38
-27.5 -49.529869 -12.503571 2.1008941e-38
-27.5 -49.625755 -34.907776 2.0643745e-38
-27.5 -47.957191 47.156525 2.0913516e-38
-27.5 52.418041 -22.250618 1.7510184e-38
-27.5 -49.466721 -56.708328 2.1559954e-38
-27.5 -45.108536 64.919922 2.2376451e-38
-27.5 53.958611 -27.081245 1.268913e-38
-27.5 46.17754 72.08625 1.7696017e-38
-27.5 -46.106705 -52.556458 1.5730147e-38
-27.5 -35.321281 29.930557 0
-27.5 -54.420708 -80.317307 2.036605e-38
-27.5 56.793274 -74.448883 1.7319358e-38
-27.5 48.901291 -52.990463 1.2413282e-38
-27.5 50.677444 47.253799 1.9252938e-38
-27.5 -39.626007 80.34063 1.9535236e-38
-27.5 49.804237 -90.252411 1.8975977e-38
-27.5 52.218636 -12.757767 1.7051363e-38
-27.5 52.374107 -67.186493 1.6955227e-38
-27.5 52.200043 -80.271912 1.7052079e-38
-27.5 53.95079 -71.871643 1.2967509e-38
-27.5 46.410519 26.365311 1.2697014e-38
-27.5 44.216721 -87.827896 1.6410117e-38
-27.5 -54.297531 18.493973 2.1193318e-38
-27.5 54.399368 -87.770981 1.7326139e-38
-27.5 54.711308 -42.894012 1.8240207e-38
-27.5 54.454018 29.918785 0
-27.5 -49.234818 68.615379 2.0545788e-38
-27.5 52.30603 -35.389587 1.704922e-38
-27.5 -54.290115 11.873405 2.211132e-38
-27.5 -47.923393 -0.76031494 2.2290715e-38
-27.5 50.383141 -45.336624 1.9067108e-38
-27.5 -53.913788 68.359985 2.0916717e-38
-27.5 52.135826 -57.099625 1.6959171e-38
-27.5 -51.38269 -26.628632 1.7384273e-38
-27.5 47.929253 65.186539 1.9434823e-38
-27.5 -51.817062 29.955376 1.6282236e-38
-27.5 -54.309105 -35.332932 2.0645539e-38
-27.5 -49.508987 34.564026 2.0917444e-38
-27.5 -56.740738 38.801357 1.5730125e-38
-27.5 49.711014 -61.703506 1.2686258e-38
-27.5 -54.960167 -65.486374 1.9906526e-38
-27.5 -54.023582 34.459282 2.0366794e-38
-27.5 56.870598 18.451363 1.7507319e-38
-27.5 50.63406 -1.0182648 1.9159667e-38
-27.5 -55.27182 46.963863 2.0734129e-38
-27.5 -54.187553 -66.455658 1.9817199e-38
-27.5 -53.916069 -12.635506 2.0643731e-38
-27.5 52.001503 68.714233 1.7421943e-38
-27.5 54.015293 79.765915 1.297144e-38
-27.5 -46.633354 -16.724358 1.6736038e-38
-27.5 -45.977226 2.9620514 1.6467369e-38
-27.5 42.460228 80.452454 1.8152691e-38
-27.5 49.538479 -17.255554 1.3425265e-38
-27.5 -44.132347 26.310593 1.5000823e-38
-27.5 51.600338 -55.764206 1.750946e-38
-27.5 51.371483 84.406395 2.0084458e-38
-27.5 -44.606033 30.298843 2.0090202e-38
-27.5 56.558792 68.706726 1.852038e-38
-27.5 -37.10817 88.51461 1.8894891e-38
-27.5 -49.453308 61.537861 2.1373407e-38
-27.5 -42.509079 91.940292 2.0087332e-38
-27.5 -48.508095 85.073784 1.9903666e-38
-27.5 39.937431 88.62896 1.8887724e-38
-27.5 56.887447 11.700729 1.787287e-38
-27.5 -54.980003 -55.343872 2.0365701e-38
-27.5 -39.26664 30.66378 2.1096829e-38
-27.5 -46.186531 -8.3337173 1.6097143e-38
-27.5 56.873421 -35.876526 1.7599497e-38
-27.5 -44.209778 80.08461 1.8894541e-38
-27.5 56.707932 -80.737656 1.7783181e-38
-27.5 -45.038857 34.019638 1.7480415e-38
-27.5 48.992546 -8.5711899 1.2968238e-38
-27.5 46.827835 80.139206 1.8521098e-38
-27.5 -53.767036 61.499992 2.1648549e-38
-27.5 -44.634239 83.661346 1.6558076e-38
-27.5 -46.464882 -39.74942 1.6092478e-38
-27.5 49.249489 -40.163055 1.3241952e-38
-27.5 48.655331 2.9192123 1.2694874e-38
-27.5 -54.055313 -21.749603 2.0552613e-38
-27.5 -49.671539 11.731781 2.2384693e-38
-27.5 -49.70845 18.810814 2.1742903e-38
-27.5 47.335068 30.349983 1.8610432e-38
-27.5 -54.345894 -56.50975 1.9998725e-38
-27.5 -48.956573 25.911667 2.128372e-38
-27.5 -31.486496 91.749008 2.0359971e-38
-27.5 -46.734268 88.581635 1.4989325e-38
-27.5 47.691887 34.006081 1.4176097e-38
-27.5 52.147217 34.569283 1.6866971e-38
-27.5 -47.046082 -84.693741 1.4985386e-38
-27.5 54.562416 42.197136 1.7133141e-38
-27.5 -54.904015 -20.714272 2.0643381e-38
-27.5 -51.860878 -17.455948 1.4997222e-38
-27.5 -44.272667 76.001038 1.6192173e-38
-27.5 -52.038994 42.134167 1.8062617e-38
-27.5 47.140167 83.692131 1.316193e-38
-27.5 -45.713173 -4.0964661 1.51795e-38
-27.5 -52.031731 -49.144775 2.0460058e-38
-27.5 -47.821289 -73.529114 2.0525018e-38
-27.5 48.520267 -4.2472458 0
-27.5 -48.894096 35.720848 2.1372331e-38
-27.5 -55.992203 -1.0828629 2.2661296e-38
-27.5 45.112522 91.879364 1.916145e-38
-27.5 56.434235 61.773331 1.8336346e-38
-27.5 -54.843826 -11.365852 2.0366769e-38
-27.5 54.492062 -17.784546 1.2873167e-38
-27.5 -43.306625 30.362976 1.972609e-38
-27.5 -44.905792 18.461304 1.3163789e-38
-27.5 52.29002 61.796085 1.7786415e-38
-27.5 -49.409355 27.383568 2.1098975e-38
-27.5 53.743233 91.718063 1.6215506e-38
-27.5 -48.637291 75.71524 2.1007856e-38
-27.5 51.284462 75.834961 1.9623494e-38
-27.5 -56.602165 -76.580658 1.4262519e-38
-27.5 52.491505 18.688644 1.9160004e-38
-27.5 46.729454 76.288292 1.6196498e-38
-27.5 48.430267 -48.11731 1.1956255e-38
-27.5 47.901779 18.431961 1.2054188e-38
-27.5 -47.095421 38.909927 1.4629155e-38
-27.5 48.947487 88.511185 1.3517812e-38
-27.5 -54.104309 -58.161011 2.2111688e-38
-27.5 -55.426025 25.131813 2.2110248e-38
-27.5 -50.501984 -75.172348 1.4071305e-38
-27.5 -53.752159 84.129654 1.9905866e-38
-27.5 52.374443 11.663399 1.8795888e-38
-27.5 34.396854 91.831604 1.9529151e-38
-27.5 -54.369698 27.422165 2.1281206e-38
-27.5 -56.662086 -8.2503052 1.6100699e-38
-27.5 -45.669609 -47.721558 1.444337e-38
-27.5 49.827118 38.939774 1.2051289e-38
-27.5 -46.312988 -76.016525 1.480353e-38
-27.5 51.657898 25.835236 1.7235394e-38
-27.5 -56.563538 -31.742722 1.7293492e-38
-27.5 -49.534164 4.5914917 2.1467403e-38
-27.5 54.555302 -49.727463 1.6955934e-38
-27.5 51.645176 77.27832 1.9165028e-38
-27.5 -55.872742 57.894245 1.4631316e-38
-27.5 -37.940536 94.066887 1.5180537e-38
-27.5 -48.069328 -28.636032 2.3480318e-38
-27.5 -51.95388 -62.083588 1.554215e-38
-27.5 -51.923843 -5.3991394 1.9160355e-38
-27.5 -45.197433 11.345047 1.4631015e-38
-27.5 -39.48494 34.061394 1.5912389e-38
-27.5 -46.023483 -69.174515 1.5263083e-38
-27.5 49.518375 -85.089539 1.3797248e-38
-27.5 52.075039 27.394897 1.7510544e-38
-27.5 -54.781281 4.5783081 2.1467392e-38
-27.5 -46.001892 68.301895 1.4167839e-38
-27.5 48.178051 11.182617 0
-27.5 40.374878 93.858177 1.4536971e-38
-27.5 -46.178474 93.34594 1.3340912e-38
-27.5 54.57058 -5.6547546 1.5756672e-38
-27.5 -56.491989 8.440361 1.5454625e-38
-27.5 -50.504539 -30.504517 1.6096041e-38
-27.5 -48.119812 -49.969101 2.2107758e-38
-27.5 48.683628 68.467484 1.26041e-38
-27.5 48.777672 -25.2957 1.2506548e-38
-27.5 -51.513809 91.719955 1.777565e-38
-27.5 42.351448 -86.306808 1.2821325e-38
-27.5 56.889359 27.352379 1.7601301e-38
-27.5 48.620041 -69.613647 1.2600536e-38
-27.5 52.960785 -75.661713 1.2416122e-38
-27.5 -45.040329 49.766003 1.4994411e-38
-27.5 -46.01973 -24.81488 1.6187911e-38
-27.5 52.936501 4.4339294 1.8610795e-38
-27.5 47.339989 44.990818 1.2416508e-38
-27.5 47.855453 49.923401 0
-27.5 56.667076 -58.792221 1.8240933e-38
-27.5 54.802879 4.4818268 1.7419445e-38
-27.5 -54.822266 75.178757 2.1187602e-38
-27.5 54.478729 -62.624146 1.2872447e-38
-27.5 -51.856026 51.823269 2.2383254e-38
-27.5 -51.576286 79.528831 1.5372519e-38
-27.5 -37.364594 84.481491 1.4440107e-38
-27.5 54.049549 61.488998 1.86115e-38
-27.5 42.369663 34.111832 0
-27.5 -18.612015 -66.360107 1.2450754e-38
-27.5 -42.378487 67.618668 1.2605996e-38
-27.5 45.274151 67.885895 1.1959874e-38
-27.5 -54.01355 77.042511 2.0089526e-38
-27.5 -44.474525 44.952339 1.4351911e-38
-27.5 48.860497 -76.355301 1.213776e-38
-27.5 -41.382957 -58.923294 1.8259079e-38
-27.5 52.330887 33.351112 1.7875025e-38
-27.5 54.493202 51.998657 1.7416561e-38
-27.5 -36.73568 23.722771 1.7986089e-38
-27.5 -43.679611 -92.682343 1.5532111e-38
-27.5 40.379932 84.10817 1.2419344e-38
-27.5 -44.37117 -91.757553 1.5623947e-38
-27.5 -51.815002 54.281776 1.4278277e-38
-27.5 44.850777 2.3758011 1.6503756e-38
-27.5 -35.909073 22.040794 1.8075772e-38
-27.5 46.763817 -92.143585 1.3423823e-38
-27.5 40.192959 -58.798676 1.429323e-38
-27.5 -41.1679 0.65705872 1.8352711e-38
-27.5 -49.306664 91.627556 2.1551347e-38
-27.5 45.106834 -26.933182 1.6777095e-38
-27.5 -46.248711 -31.199677 1.7289223e-38
-27.5 48.978241 -31.686508 1.2141714e-38
-27.5 -42.96991 40.223289 1.407531e-38
-27.5 54.466469 68.549881 1.5111657e-38
-27.5 -36.148354 25.64682 1.7799907e-38
-27.5 54.48452 54.509491 1.2342923e-38
-27.5 -41.115639 -28.936646 1.8349838e-38
-27.5 37.273048 83.343246 1.6293063e-38
-27.5 50.350506 21.959015 1.3534311e-38
-27.5 -44.744377 41.1772 2.1637113e-38
-27.5 -44.811127 55.17231 1.2701025e-38
-27.5 -30.54805 19.031792 1.8075038e-38
-27.5 48.225861 40.716599 1.2875677e-38
-27.5 45.255138 -56.89296 1.6226431e-38
-27.5 -54.889793 50.650414 2.034887e-38
-27.5 -27.404274 90.360641 0
-27.5 41.508896 76.32354 1.2878216e-38
-27.5 42.709503 30.823952 1.4657981e-38
-27.5 25.735233 -3.3103104 1.6782148e-38
-27.5 -34.605789 83.206711 1.8221258e-38
-27.5 47.72839 55.214222 1.2145307e-38
-27.5 30.285591 90.500809 0
-27.5 -38.587616 76.099297 1.1872368e-38
-27.5 42.586288 30.058495 1.3736408e-38
-27.5 -50.426888 45.067497 1.7866759e-38
-27.5 47.135891 36.934364 1.8790181e-38
-27.5 -45.724838 -50.36586 1.5456806e-38
-27.5 46.92905 61.191788 0
-27.5 46.09417 40.508286 1.517987e-38
-27.5 -33.259476 -8.9017792 1.8076127e-38
-27.5 -44.753151 38.430729 2.0626515e-38
-27.5 -3.0602417 -62.469727 1.2171279e-38
-27.5 -16.326294 27.773155 1.5493207e-38
-27.5 -36.115471 -66.601715 1.7615502e-38
-27.5 39.650173 -67.79335 1.5678669e-38
-27.5 -14.715073 -62.735901 1.678682e-38
-27.5 42.778103 58.754276 0
-27.5 36.934517 -9.6129532 1.6230398e-38
-27.5 39.174034 -29.987961 1.3831892e-38
-27.5 -45.219955 -58.568008 1.4349771e-38
-27.5 47.961334 -58.763916 1.1771164e-38
-27.5 34.523243 83.235535 0
-27.5 -42.382607 2.668808 1.8903358e-38
-27.5 -42.631317 -26.330299 1.9729164e-38
-27.5 -14.912308 -32.569626 1.7706621e-38
-27.5 -44.125687 60.943687 1.2792868e-38
-27.5 39.210167 -0.15600586 1.4385418e-38
-27.5 -47.028023 6.5847931 2.0621519e-38
-27.5 40.820847 -32.388596 0
-27.5 46.009499 -63.346817 1.6858487e-38
-27.5 -22.702347 -2.6627884 1.7615865e-38
-27.5 41.032761 -2.4737625 0
-27.5 -20.652893 26.843353 1.7615146e-38
-27.5 -49.18145 54.434574 2.2198506e-38
-27.5 -31.828346 -85.451721 1.6968337e-38
-27.5 49.494846 6.3881607 1.8502473e-38
-27.5 -22.506615 -3.1516495 1.7432189e-38
-27.5 2.9327812 -32.560471 1.3371629e-38
-27.5 18.902081 -63.306427 1.6323673e-38
-27.5 -3.3034286 -61.673126 1.2724453e-38
-27.5 36.485611 -67.189255 1.6047451e-38
-27.5 51.676697 54.560734 1.9434079e-38
-27.5 19.754635 -62.854385 1.6139644e-38
-27.5 -30.519966 -39.951752 1.8165085e-38
-27.5 -10.896858 -62.307098 1.2542224e-38
-27.5 18.613773 -32.589111 1.6598827e-38
-27.5 18.72773 -62.682983 1.6508427e-38
-27.5 -6.2441635 25.295547 1.6230769e-38
-27.5 -42.601212 -31.62291 1.9544054e-38
-27.5 34.623882 -85.479523 1.6322242e-38
-27.5 39.99601 -37.683533 1.5403158e-38
-27.5 41.232185 58.109676 0
-27.5 -37.631287 -13.114395 1.8260518e-38
-27.5 -42.602394 -61.393982 1.871645e-38
-27.5 35.291367 -86.824081 1.5771586e-38
-27.5 -45.76609 59.033989 2.0991043e-38
-27.5 -45.091835 7.7585449 1.4444463e-38
-27.5 -9.2665634 -34.267502 1.4940749e-38
-27.5 40.691696 7.5652161 1.5953098e-38
-27.5 -42.368568 -56.750229 1.8534575e-38
-27.5 -7.4616547 -1.6585159 1.2357479e-38
-27.5 -20.907227 -57.117813 1.3465993e-38
-27.5 -36.932907 6.4869766 1.8076127e-38
-27.5 34.886742 87.241631 1.8686901e-38
-27.5 -8.3302002 -1.1697235 1.6136418e-38
-27.5 49.01585 59.408756 1.3345253e-38
-27.5 38.642403 2.1459732 1.5214826e-38
-27.5 -19.057213 -45.929459 1.5124425e-38
-27.5 -31.99543 87.113106 1.8966725e-38
-27.5 -3.9443436 27.99601 1.3650736e-38
-27.5 7.503315 -1.1772842 1.6227535e-38
-27.5 -38.58847 -76.776428 1.7246363e-38
-27.5 -40.967514 60.663116 0
-27.5 37.031303 -37.716843 1.604673e-38
-27.5 20.056171 -3.3138885 0
-27.5 -8.7520599 -40.387238 1.7153447e-38
-27.5 -38.785446 -15.863586 1.8168322e-38
-27.5 -26.030273 -43.591888 1.6600268e-38
-27.5 -39.804291 60.011604 0
-27.5 -13.568451 -38.706009 1.6970132e-38
-27.5 -9.4861832 -69.533096 1.6968334e-38
-27.5 -33.448883 2.4578629 1.7522601e-38
-27.5 31.992031 -25.449753 1.6139641e-38
-27.5 -7.949379 24.733391 1.8350548e-38
-27.5 40.071495 6.3729172 1.6506633e-38
-27.5 -27.094704 -25.038162 1.7339289e-38
-27.5 35.668938 85.156883 1.2229975e-38
-27.5 17.878048 -1.2322464 1.4844954e-38
-27.5 -28.792206 10.025963 1.632188e-38
-27.5 -8.1783829 -39.678345 1.6785388e-38
-27.5 40.103027 27.04081 0
-27.5 -35.73307 -47.299103 1.8259079e-38
-27.5 -9.2374802 -32.303223 0
-27.5 -37.323357 8.3187714 1.7984284e-38
-27.5 -14.222961 27.774513 1.549321e-38
-27.5 -17.697861 -4.2453842 1.7521864e-38
-27.5 -20.241295 -58.392578 1.199014e-38
-27.5 31.925695 -50.92189 1.364785e-38
-27.5 -37.186302 -72.36908 1.3928755e-38
-27.5 40.163288 -47.834839 1.5954898e-38
-27.5 -15.200577 19.440193 1.8075404e-38
-27.5 -1.7944946 -1.5618896 1.3741839e-38
-27.5 -35.186798 7.1706009 1.8076124e-38
-27.5 42.349499 -17.754814 1.5587549e-38
-27.5 12.94648 -69.559799 1.6415512e-38
-27.5 -0.28546524 -1.2848587 1.5954898e-38
-27.5 12.904541 -12.052139 1.696725e-38
-27.5 17.611675 19.60704 1.7243837e-38
-27.5 36.989433 -25.848076 1.6322965e-38
-27.5 35.009445 55.92754 0
-27.5 -9.2650681 -12.315742 1.7429312e-38
-27.5 30.65093 -55.391357 1.6047449e-38
-27.5 -6.3989716 -61.818481 0
-27.5 -15.785515 -68.688522 1.6877937e-38
-27.5 -32.985611 84.958656 0
-27.5 -37.893852 59.24622 0
-27.5 43.230305 13.579758 1.5492128e-38
-27.5 23.571449 -54.451752 1.6783572e-38
-27.5 12.845566 -70.367538 1.6507711e-38
-27.5 -36.056206 -58.922928 1.7982489e-38
-27.5 -16.247902 -10.452766 1.743147e-38
-27.5 -38.679253 13.817741 1.8718621e-38
-27.5 -24.783096 -55.302582 1.7337487e-38
-27.5 13.895226 -39.647263 1.6691379e-38
-27.5 21.827938 -10.256454 1.6782137e-38
-27.5 21.093487 -10.271172 1.6782858e-38
