# .PCD v0.7 - Point Cloud Data file format
VERSION 0.7
FIELDS x y z rgb
SIZE 4 4 4 4
TYPE F F F F
COUNT 1 1 1 1
WIDTH 1277
HEIGHT 1
VIEWPOINT 0 0 0 1 0 0 0
POINTS 1277
DATA ascii
35 -54.091187 -44.805679 0
35 4.4802856 -19.173294 1.4569855e-38
35 18.387329 -11.202072 1.4570947e-38
35 45.874069 79.382019 0
35 47.053146 -13.783279 0
35 69.726364 112.67943 1.3562159e-38
35 54.19162 28.081154 0
35 69.888672 113.80873 1.3653633e-38
35 2.6362839 -28.368546 0
35 -37.309669 -122.94421 1.216696e-38
35 30.28463 3.9141998 0
35 1.1068192 -28.948349 0
35 18.697739 78.980026 0
35 -12.560188 7.40979 0
35 -38.785866 -93.453415 0
35 -8.8920288 -13.412598 0
35 48.9272 13.834869 0
35 8.1489563 -7.341507 0
35 34.938049 -27.317902 1.6041724e-38
35 62.288803 -3.6996002 0
35 -20.466217 -127.86328 0
35 -52.722107 -67.281464 1.4566223e-38
35 2.6620178 75.583664 0
35 -57.756176 -62.187592 0
35 -2.6582565 -17.29509 0
35 18.073051 79.432518 0
35 -30.058426 -2.3960419 0
35 -20.549812 -3.5807495 1.4569093e-38
35 70.208374 118.1595 0
35 72.604553 13.483658 0
35 28.847252 17.399719 0
35 -21.26915 65.871536 0
35 -11.709 -8.1402283 0
35 -43.02066 -86.812805 1.3185451e-38
35 68.682373 26.709412 0
35 1.3903503 59.193275 0
35 -15.49662 -8.8330841 0
35 1.468071 58.046806 0
35 -2.9118347 -1.9098816 1.4937149e-38
35 15.195282 2.8285217 1.4382178e-38
35 22.512856 2.546402 0
35 15.943344 -23.050995 1.4848273e-38
35 7.5357742 -127.73419 1.4290585e-38
35 12.155785 65.117546 1.3554955e-38
35 30.341835 70.146278 1.1990158e-38
35 -61.043865 -90.854034 0
35 3.5601196 -91.923813 0
35 -52.183983 -53.943588 1.3096506e-38
35 5.5066757 -72.719971 1.5486601e-38
35 -78.85231 -57.694962 0
35 69.110962 37.460258 1.392229e-38
35 51.806137 21.352715 1.530632e-38
35 -2.2665787 1.9024048 1.5116799e-38
35 37.708725 -20.124603 0
35 -15.753464 75.264091 1.5119629e-38
35 -66.510323 -66.537094 1.2821354e-38
35 -19.225845 -1.7407379 1.3275429e-38
35 3.5308838 -7.3013763 0
35 5.4420776 -114.29614 0
35 36.8638 -132.92902 1.4565379e-38
35 -2.5754929 66.693466 0
35 -65.179237 -64.709366 1.2729158e-38
35 26.888901 0.25288391 0
35 33.84668 10.854874 1.5027553e-38
35 20.482162 21.380768 1.5570182e-38
35 10.152596 -2.0004272 0
35 -8.9986572 -12.682861 0
35 18.836197 -53.128372 0
35 -48.023354 112.18948 0
35 28.155151 54.271271 0
35 -32.160809 -10.70256 0
35 -37.350975 1.2051544 1.401808e-38
35 -39.22123 61.866653 1.4382068e-38
35 -0.41629028 -92.004898 0
35 -70.286438 -92.92662 1.2077287e-38
35 66.30275 58.055008 0
35 -9.2133179 -20.384995 0
35 40.479843 25.026192 1.5938237e-38
35 31.344742 26.19857 1.6029002e-38
35 -24.221222 7.9776459 1.4562507e-38
35 -51.740528 -120.38736 0
35 32.985657 26.367821 1.5938603e-38
35 -63.613373 -33.607178 0
35 57.369705 34.528175 1.5398126e-38
35 67.788177 57.469154 0
35 -23.893051 -17.475479 0
35 -12.558144 -56.055908 0
35 7.8658524 85.159714 1.5857916e-38
35 -2.3736343 -101.83636 1.4935588e-38
35 -30.067818 -121.42667 0
35 42.692749 15.623505 1.39212e-38
35 -20.343636 10.230453 1.4654349e-38
35 -53.683464 22.752625 0
35 -38.18671 19.953331 0
35 -23.207771 -57.584854 1.3090726e-38
35 -14.919502 -32.44841 0
35 -64.253555 18.523003 0
35 18.565643 15.1978 1.5387221e-38
35 50.775833 -22.876419 1.5851099e-38
35 75.943283 106.56391 0
35 43.765991 67.401077 0
35 32.107391 -32.728577 1.5389033e-38
35 -71.479645 -7.8607483 0
35 56.019897 -121.83609 1.6503417e-38
35 -28.32621 -32.364029 0
35 12.741295 -76.102417 1.5578797e-38
35 -67.050827 36.300941 1.2715393e-38
35 29.125305 -32.290009 1.5569833e-38
35 29.643578 -9.3781738 1.5584397e-38
35 76.865417 1.9212189 1.6409049e-38
35 12.115601 22.051262 0
35 -4.8815231 -103.07343 1.4843393e-38
35 47.534714 -21.935104 1.2717588e-38
35 -1.7132721 11.385376 1.520498e-38
35 -15.030922 2.5057983 1.566347e-38
35 24.05867 27.896683 0
35 -5.2801285 46.561157 0
35 -13.524132 20.156807 0
35 -68.372581 17.991196 0
35 -56.492382 -118.1236 0
35 10.918793 24.44986 0
35 -80.587326 134.11014 1.2457229e-38
35 -10.813766 -74.601532 0
35 -68.378639 -72.523026 0
35 -20.192932 -34.661453 1.5765841e-38
35 -58.994888 -72.625778 0
35 25.209969 10.570267 1.4559672e-38
35 73.774658 120.40616 0
35 29.066994 -19.135971 0
35 -33.774555 15.531647 0
35 41.79686 17.838058 1.4836259e-38
35 -48.989014 75.118011 0
35 49.899445 115.52592 1.466155e-38
35 22.646973 11.439087 1.4835508e-38
35 -22.200317 28.864944 0
35 71.876648 90.825806 1.5673153e-38
35 73.099838 87.281166 1.6133055e-38
35 0.81430817 -45.070618 1.5853624e-38
35 -19.933563 -36.993347 1.456401e-38
35 64.14296 -128.25626 1.503188e-38
35 8.5988998 -119.64636 0
35 3.0810547 3.3268585 1.4380691e-38
35 -27.629059 -114.08902 1.2815497e-38
35 16.792252 6.3349304 1.4654767e-38
35 46.987778 -122.4129 0
35 -55.1255 127.66949 0
35 58.517532 110.69152 0
35 49.191879 118.58559 0
35 -18.31694 12.474091 1.4742596e-38
35 58.992233 123.45913 0
35 69.041092 132.28404 0
35 -66.024475 127.6556 0
35 -8.425499 76.754234 0
35 -72.780457 -40.445999 0
35 -43.728764 127.6243 0
35 -60.010685 132.61426 0
35 -85.333618 129.06956 0
35 -11.217331 10.421234 0
35 -56.766125 -73.490417 0
35 -27.604683 -69.646881 1.2906334e-38
35 -58.149708 112.51653 0
35 47.146011 99.669014 1.5581323e-38
35 12.129356 35.854584 0
35 -50.000294 47.92215 0
35 -72.405548 -117.53735 0
35 -58.360538 13.511002 0
35 -51.566879 75.188217 0
35 -10.977119 -72.918411 0
35 36.557739 71.292206 1.4663835e-38
35 -76.194656 127.88174 0
35 -70.358696 20.051071 0
35 -75.909164 51.880806 0
35 44.999466 -102.23204 0
35 -44.330624 -69.989075 0
35 54.154724 53.509094 0
35 -82.221245 -49.25473 0
35 61.667694 49.101433 1.4468215e-38
35 4.7715912 41.576775 0
35 -77.262665 31.021896 0
35 8.4886932 26.211548 0
35 -62.624863 -105.9588 1.2169483e-38
35 12.007263 41.173721 0
35 29.54287 39.4235 0
35 -61.44561 -43.231354 0
35 48.79071 113.43801 1.4937403e-38
35 -59.647282 -85.228729 1.2442824e-38
35 -62.920425 -10.807343 1.4006113e-38
35 -53.448639 -95.063065 0
35 -59.528648 -83.683197 1.2259156e-38
35 65.949081 88.972794 1.5948301e-38
35 46.548019 -125.02777 0
35 -18.86264 -68.636307 1.3362622e-38
35 23.760406 71.428658 1.3742957e-38
35 26.000221 -81.58992 0
35 63.157654 106.70061 0
35 -34.890438 -16.071335 0
35 -47.307884 -72.384216 0
35 -10.059044 -67.005325 0
35 -74.896423 63.943367 1.336935e-38
35 13.015923 -102.23535 0
35 4.1094894 0.32496643 0
35 83.939667 17.008698 1.6592656e-38
35 -25.380974 45.19632 0
35 25.928185 -81.054779 0
35 -24.495239 52.598885 0
35 -62.510952 21.611435 0
35 -38.757225 -115.09335 0
35 -78.500244 -6.7363281 0
35 26.264374 -4.2365265 0
35 13.963486 50.701294 0
35 -42.341805 -45.11879 1.3913187e-38
35 21.708977 -5.2941589 0
35 -65.644676 -25.610245 0
35 80.27504 105.72935 0
35 -61.79158 -45.251434 0
35 -76.269051 -46.250092 0
35 30.385315 91.375992 1.3098668e-38
35 -9.8532639 -130.10703 1.3368645e-38
35 44.346039 41.162766 0
35 -15.772461 42.2742 0
35 -82.293526 12.267975 0
35 -70.220955 -129.84177 0
35 -3.7243195 32.292015 0
35 -22.728165 -49.781876 0
35 80.034561 -129.58493 1.3553474e-38
35 55.244354 67.738129 0
35 49.750305 -64.365402 1.6407473e-38
35 -58.113739 19.903992 0
35 -63.323509 -100.54428 1.1986533e-38
35 38.356262 44.003563 0
35 4.7391663 126.54619 0
35 0.92321777 12.196121 1.5480133e-38
35 46.38298 44.909065 0
35 14.901825 -90.636719 1.1787002e-38
35 71.612259 17.848297 0
35 54.425659 -18.151917 1.1978935e-38
35 27.653755 85.96299 1.4387964e-38
35 -13.309258 -93.002441 1.4843042e-38
35 -79.545609 -22.892929 0
35 -45.734741 -60.85881 0
35 -51.938141 -36.055496 1.3634462e-38
35 -34.874111 -69.603592 1.3273675e-38
35 -11.759499 25.246513 0
35 35.590637 119.95145 0
35 62.025284 121.48663 0
35 17.155151 -90.808319 0
35 -82.118332 41.869507 0
35 20.000877 37.007675 0
35 79.992508 111.13617 0
35 19.846184 -68.364761 0
35 -17.254242 84.094345 1.4937026e-38
35 36.05014 -1.663147 0
35 -82.302124 28.807426 0
35 -43.539867 -67.031219 0
35 -34.923977 -67.420105 1.3457713e-38
35 -37.747971 114.4584 1.4476422e-38
35 -76.87941 62.202293 1.382819e-38
35 52.518967 66.830338 0
35 31.619675 125.5898 0
35 30.46656 125.74419 0
35 35.113144 116.63594 1.3654e-38
35 35.024811 -54.676468 1.5848205e-38
35 -0.81492615 39.312225 0
35 20.162376 110.61697 1.5030703e-38
35 15.23777 67.500916 1.4384724e-38
35 57.10585 -116.53027 1.3184365e-38
35 69.908554 103.19057 1.2634707e-38
35 -22.047104 -26.173737 0
35 48.375854 44.873306 0
35 32.420685 -38.167557 1.6128753e-38
35 -42.017548 -112.0816 1.1982569e-38
35 66.859955 67.593758 0
35 35.687393 -65.80072 1.6681225e-38
35 -32.397652 -40.277954 1.3454426e-38
35 40.045013 41.441231 0
35 -39.338692 -37.505981 1.2710353e-38
35 36.822937 -57.837204 1.6308806e-38
35 -70.847137 -77.756973 1.1987261e-38
35 37.740677 -65.286697 1.6404976e-38
35 -33.969639 -43.134521 1.5390523e-38
35 -34.470173 112.1659 1.4661531e-38
35 -39.653248 -102.56493 0
35 -65.686165 129.80652 0
35 -47.614868 14.718811 0
35 -71.990433 -50.509888 0
35 15.412865 131.3703 0
35 -34.362133 -57.178909 1.4475103e-38
35 -2.4024124 -63.859924 1.5206783e-38
35 66.53299 -119.78943 1.4937182e-38
35 56.093399 88.547272 1.5764276e-38
35 19.859344 125.67184 0
35 -52.324902 -81.588882 1.2536464e-38
35 -10.943039 -40.308899 1.4657611e-38
35 -50.786781 52.715721 0
35 68.771103 102.69125 1.3278994e-38
35 -13.502785 -85.716644 1.4474263e-38
35 43.202087 -114.82443 0
35 -58.517624 -85.58287 0
35 27.83728 132.1115 0
35 -27.693489 -45.954849 1.2530653e-38
35 64.172714 42.96904 1.6037284e-38
35 -82.78759 -38.022995 0
35 -61.24992 -48.704544 0
35 -38.486328 32.937561 0
35 0.66002655 22.664055 0
35 -42.195438 -24.378754 1.392256e-38
35 57.521317 3.5271606 0
35 18.462288 130.88853 1.2452469e-38
35 34.568527 -41.129654 1.6773421e-38
35 -68.60537 6.3765869 1.2624252e-38
35 -58.05481 104.83856 0
35 46.097794 -111.69424 0
35 -32.159901 -36.625458 1.4468566e-38
35 -77.098007 104.81818 0
35 53.625076 37.691467 1.6034765e-38
35 -78.06424 15.046204 0
35 53.145157 2.5149841 0
35 -24.567154 43.727348 0
35 -52.486744 -108.88647 1.2169485e-38
35 30.493843 73.700775 0
35 18.619598 8.9005432 1.5203937e-38
35 67.281677 103.14767 1.327863e-38
35 -34.175819 7.1345215 1.3641283e-38
35 -14.015472 -39.753525 1.4657964e-38
35 44.825699 0.57789612 0
35 -24.701225 -100.41 1.1890303e-38
35 49.358841 43.088524 0
35 16.263077 -69.690292 0
35 -76.689468 12.393204 0
35 19.929871 93.755035 1.5490591e-38
35 58.961746 -112.70761 1.5120387e-38
35 60.063065 130.96245 0
35 22.221489 -33.648209 1.5293983e-38
35 -74.822128 -67.062759 1.1991593e-38
35 -82.517548 -103.26025 0
35 49.455429 126.68121 0
35 -68.123047 121.9534 0
35 23.610329 -92.45018 1.1878476e-38
35 -51.258389 4.5047302 1.317923e-38
35 -8.005394 84.431808 1.5305093e-38
35 -56.653278 -132.72302 0
35 -53.963043 -128.40564 0
35 -19.800056 -116.75165 0
35 29.037735 -62.92984 1.206428e-38
35 76.047928 62.717491 0
35 -32.082329 37.333122 0
35 79.120926 14.920639 0
35 -47.718014 5.7493134 1.327106e-38
35 46.789032 93.569931 1.5489852e-38
35 22.878654 125.65006 0
35 32.259491 -73.253113 1.2431639e-38
35 73.082779 -123.0246 1.2636258e-38
35 -67.209709 -110.71524 0
35 -58.385586 122.02895 0
35 -14.402771 30.902916 0
35 25.456268 -87.970428 1.3172455e-38
35 40.782715 122.38744 0
35 -41.25703 -46.981903 1.3913903e-38
35 -25.313286 -23.601257 0
35 -84.301659 22.123604 0
35 34.881378 101.01037 0
35 -74.19986 40.221718 0
35 -38.295425 8.768631 1.5020265e-38
35 7.3345184 -78.608795 1.5670638e-38
35 4.3514099 1.1461029 1.6044587e-38
35 -46.605423 121.69459 0
35 63.337219 -101.34625 1.6225251e-38
35 -47.333122 -103.13893 0
35 -18.320183 -21.184235 0
35 36.583221 -119.58322 0
35 -19.246643 -19.695419 0
35 43.575287 -90.483078 1.3170642e-38
35 -14.11515 -121.06699 0
35 -44.504543 23.313736 0
35 41.047638 24.382286 1.6029359e-38
35 50.204468 -39.360977 1.5381126e-38
35 44.044174 92.765549 1.5489498e-38
35 -36.105122 -110.12895 1.2352068e-38
35 68.163269 -117.38733 1.4476911e-38
35 -61.391453 105.70483 0
35 -57.502235 -23.456207 1.2802913e-38
35 -29.719604 -78.01152 1.2999246e-38
35 -55.133636 106.8036 0
35 -21.098 -16.230591 0
35 35.093872 113.65508 1.3192303e-38
35 8.643692 -65.577438 1.5116396e-38
35 42.695389 -23.228073 0
35 1.3191986 -51.077759 1.4827948e-38
35 28.619873 -77.091324 0
35 19.914612 -96.291168 0
35 -0.46884918 116.60084 1.5307627e-38
35 17.688301 53.951775 0
35 -53.57938 32.4562 0
35 35.093674 -7.9115143 0
35 11.825294 -106.76799 0
35 55.155426 -43.017349 1.6397049e-38
35 -7.2773438 -112.64081 1.4751919e-38
35 70.362854 -9.2730255 1.695639e-38
35 80.022934 58.67469 1.603547e-38
35 4.7347412 -50.084427 1.4643559e-38
35 39.693466 29.560135 1.5757799e-38
35 -45.573746 -35.83017 1.2985844e-38
35 60.086365 -10.569214 1.7053344e-38
35 41.076324 -86.770187 1.2616397e-38
35 -30.83725 55.72081 0
35 -67.310089 66.622353 1.3552668e-38
35 30.180565 102.40698 0
35 -71.929886 -110.99286 0
35 -53.354362 -6.2238922 1.318355e-38
35 27.688622 -76.084656 0
35 73.771378 -11.676224 1.7326596e-38
35 46.050369 125.02116 0
35 66.870911 -92.718307 1.6961729e-38
35 -42.859856 104.56453 1.374142e-38
35 -61.183601 76.589882 1.3922521e-38
35 55.631454 -106.93077 1.5949393e-38
15.07464 96 133.0932 0
-16.257698 96 -102.75092 0
13.829657 96 6.9885559 0
15.197676 96 56.820381 1.5305932e-38
20.577522 96 -51.560699 0
23.652431 96 47.442902 0
13.86657 96 17.374634 0
14.728836 96 20.509804 0
-18.897518 96 84.031998 0
-13.261581 96 56.77977 1.5765838e-38
5.4745312 96 21.532967 1.4016973e-38
-7.4723358 96 -101.77792 0
14.29365 96 -116.44165 0
3.1005116 96 8.6386108 1.5856204e-38
-0.39035416 96 16.372375 1.3552404e-38
13.374456 96 33.580818 0
-11.877304 96 -45.298767 1.429252e-38
12.433708 96 -116.55914 0
-14.340485 96 -66.743713 0
3.8959045 96 -109.82951 0
0.44063187 96 59.872826 1.5491409e-38
13.62948 96 66.566002 1.4754197e-38
15.817497 96 -51.218079 0
-11.807472 96 6.6551361 0
0.35137939 96 -37.739105 0
9.0062256 96 -23.452713 1.5390098e-38
4.7400112 96 -45.336792 1.364859e-38
5.2478275 96 24.190704 1.4937853e-38
-1.3239021 96 -51.435303 0
3.8341618 96 6.6595612 1.6038786e-38
-3.31707 96 -110.36739 0
5.1360054 96 50.900986 1.4291413e-38
14.657909 96 29.371994 0
-5.73349 96 37.492683 1.5487408e-38
-1.8042488 96 -110.18024 1.1903705e-38
20.909801 96 -74.586868 0
15.647432 96 -29.264221 0
-20.318436 96 -82.619598 0
15.642229 96 -102.45251 0
-5.8704758 96 21.474373 1.4197037e-38
21.066853 96 -78.483154 0
9.9641247 96 -93.482803 0
12.006851 96 -51.410233 0
-5.9170113 96 11.344543 1.47506e-38
-20.115345 96 -71.822571 0
6.8690033 96 -101.6776 0
-11.980801 96 -42.705078 1.5953126e-38
20.988171 96 99.651016 0
18.66165 96 100.78506 0
16.283388 96 -45.160156 1.2911389e-38
-18.388668 96 39.158058 0
-11.950439 96 62.295624 1.5857313e-38
-15.721928 96 -124.44614 0
-1.3326683 96 29.57428 1.4933514e-38
22.263481 96 -62.791183 0
-0.91281509 96 34.910576 1.4472536e-38
13.910631 96 69.361855 1.5306279e-38
-2.1558571 96 -96.56456 1.3192635e-38
2.1340103 96 28.542114 1.5301578e-38
-17.612881 96 6.4649506 0
7.6440392 96 38.46666 1.2821326e-38
10.210314 96 -107.28889 0
-20.124954 96 -121.3674 0
-1.1971626 96 -72.791321 0
-12.507706 96 121.69859 0
-8.4036598 96 -24.452576 1.4285218e-38
4.1410275 96 -90.988098 0
2.6354637 96 -19.715515 1.3640967e-38
-15.951889 96 124.0533 0
20.83279 96 -17.674332 1.5018406e-38
-7.6445961 96 -94.071869 0
-4.8951721 96 -96.125336 1.4757451e-38
5.5486259 96 -64.856583 0
20.560204 96 102.68513 0
-4.2641525 96 -56.848602 0
10.867321 96 82.670776 0
20.920118 96 -86.828934 0
-6.7432137 96 24.197861 1.5396303e-38
16.666132 96 117.45422 0
-18.883995 96 128.94174 0
-15.54948 96 -64.67421 0
-19.823036 96 -89.041458 0
3.4183941 96 48.761314 1.2907741e-38
15.709345 96 -90.652618 0
21.413628 96 -10.599701 1.4654314e-38
4.28582 96 40.151443 1.5212981e-38
23.97747 96 -23.791046 1.5575194e-38
18.077717 96 110.29741 0
8.7314835 96 105.65614 0
3.9808617 96 112.40392 0
-18.977997 96 -23.244247 1.6771912e-38
-13.744331 96 69.352074 1.6134951e-38
-3.6769943 96 -72.596634 0
9.4124355 96 84.38884 0
11.231049 96 -63.096039 0
4.6657524 96 -53.862122 0
-14.549789 96 -86.96814 0
8.1648598 96 12.595367 1.6595247e-38
-2.5645142 96 -19.595474 1.5484157e-38
-20.20771 96 -68.75769 0
-12.466469 96 66.34774 1.5581447e-38
21.442032 96 -7.3515167 1.4374476e-38
0.90908051 96 -30.649048 0
20.37933 96 -14.131561 1.3087707e-38
-5.2945251 96 65.180183 1.3738978e-38
-3.9722366 96 -91.206894 0
-17.962402 96 30.413727 0
10.488569 96 -59.22966 0
4.8492813 96 -87.541718 0
0.6291008 96 -31.596146 0
-14.92384 96 -78.609436 0
10.697432 96 93.243774 0
17.501114 96 -3.4321747 1.2256149e-38
7.3832779 96 92.852493 0
16.28367 96 -60.728958 0
-2.0691757 96 -62.818481 0
-0.85680389 96 30.629807 1.4196671e-38
-1.2906189 96 72.199791 1.5949477e-38
-10.106133 96 -87.844833 0
-6.3875122 96 100.37094 0
7.4773636 96 85.117805 0
-12.306145 96 -86.919983 0
-11.804028 96 109.5065 0
1.4394836 96 69.624649 1.3554586e-38
-21.993687 96 21.106186 1.2269268e-38
-13.79895 96 108.71949 0
-13.885529 96 133.26376 1.190037e-38
10.267847 96 -76.351471 0
-3.705513 96 -75.026169 0
3.3100719 96 -57.460938 0
18.900658 96 -122.02295 0
0.63219452 96 75.360107 1.1800285e-38
-15.865112 96 -133.30368 0
-8.0137177 96 -72.09758 0
-15.62645 96 128.63312 0
22.712996 96 -88.056259 0
-15.796585 96 63.883736 1.5306652e-38
5.8169327 96 -61.452164 0
-4.2285118 96 101.84628 0
-16.283653 96 -3.6751556 1.51171e-38
-14.359798 96 -11.470932 1.492946e-38
-19.616493 96 -3.7597046 1.428662e-38
13.774679 96 99.522507 0
-6.8118248 96 92.894066 0
24.450966 96 127.06645 0
-0.88385773 96 27.724297 1.4010118e-38
18.964413 96 -89.036301 0
-20.264656 96 -58.743118 0
9.9652672 96 -33.801376 0
18.198353 96 -0.3964386 1.3824942e-38
-1.4951248 96 -93.435104 0
-17.725914 96 -121.92792 0
-15.116852 96 -18.443817 1.5849253e-38
13.744551 96 110.90581 0
-0.9919548 96 -82.470825 0
21.630112 96 -3.5659485 1.5112404e-38
-21.480679 96 -5.9103851 1.6405307e-38
7.4133968 96 90.96698 0
-4.3718719 96 98.364464 0
-6.0956421 96 -79.51712 0
4.566658 96 -93.505417 0
10.476561 96 104.78413 0
-1.2179451 96 -85.2966 0
-14.922298 96 -6.6188354 1.5391155e-38
-35 -31.921745 -120.54904 1.5399924e-38
-35 -25.13842 -111.9559 0
-35 -40.131348 -121.89954 0
-35 -38.648193 -109.16887 0
-35 -23.050316 -99.424805 0
-35 -21.089561 -99.688019 0
-35 -78.722702 -101.90506 0
-35 -70.105728 -90.587677 0
-35 52.320206 -15.256424 1.401375e-38
-35 -16.33152 -111.94315 1.5218767e-38
-35 -62.952667 -5.903595 0
-35 -62.869308 36.27877 0
-35 -75.979584 -102.27068 0
-35 -43.939377 45.839363 1.2534284e-38
-35 -47.930481 -94.901978 0
-35 -80.517715 -88.948944 1.9634083e-38
-35 -44.47023 -121.68237 0
-35 -47.816544 -107.60789 0
-35 -51.005142 50.344154 0
-35 -43.889236 -88.376328 1.7425362e-38
-35 15.113182 69.978104 0
-35 47.531086 -72.948776 1.5576975e-38
-35 -69.766083 79.009094 1.4110989e-38
-35 -42.564621 -102.19208 1.7239878e-38
-35 -10.87336 -96.474075 1.659663e-38
-35 -53.446091 63.021111 1.5861638e-38
-35 -60.214371 -92.309875 1.4285655e-38
-35 28.442795 83.64827 1.3655057e-38
-35 31.347015 -77.248016 0
-35 -73.800186 -116.3024 0
-35 -64.693451 -38.884048 0
-35 4.5553589 66.078583 0
-35 -34.656326 -84.039124 1.6872574e-38
-35 -70.683502 -108.6413 1.6689587e-38
-35 -49.709167 -94.419983 0
-35 51.370476 27.175568 1.484711e-38
-35 72.636139 -91.250336 1.1975986e-38
-35 -47.154968 -34.700516 0
-35 26.650291 -86.651825 1.1894681e-38
-35 -56.103882 -80.641327 0
-35 -39.044678 52.377541 0
-35 -24.121162 -88.921616 1.622896e-38
-35 11.646286 -67.896545 0
-35 31.80407 -74.031372 0
-35 60.756657 73.2472 1.2453628e-38
-35 39.512897 -15.339539 1.5025377e-38
-35 61.736965 -49.499756 0
-35 -57.995895 -105.91487 0
-35 -47.803818 -129.17426 1.521662e-38
-35 -32.868607 -97.963501 0
-35 11.387901 -70.389603 0
-35 -2.8648911 -106.52324 1.4928035e-38
-35 42.442154 16.491394 1.4646492e-38
-35 12.843185 34.832634 1.1984731e-38
-35 -54.926132 123.37891 1.3552741e-38
-35 12.730103 -102.44125 1.308133e-38
-35 -54.738129 -105.73064 0
-35 61.778996 -18.274307 0
-35 -0.50271606 81.589615 0
-35 -56.411453 -121.80103 0
-35 -38.050552 -34.631561 1.5950229e-38
-35 -58.670166 -79.595154 0
-35 30.778229 -8.1582184 1.318724e-38
-35 42.996326 -77.964951 1.4935238e-38
-35 -61.018707 -105.94357 1.5577471e-38
-35 -63.938202 28.780098 1.4839529e-38
-35 -44.91861 -129.18323 1.6691399e-38
-35 31.664299 -9.5118561 1.337091e-38
-35 -66.875229 123.36654 1.4290325e-38
-35 -79.472397 -28.643036 0
-35 0.31919098 78.858017 0
-35 -74.308731 -83.13858 1.7056933e-38
-35 -32.161163 83.221909 0
-35 12.342819 84.027145 1.3929843e-38
-35 -71.987183 21.556252 1.7420652e-38
-35 7.8357544 39.526031 1.3281228e-38
-35 -64.908783 -117.91821 0
-35 -61.192276 -20.096695 1.7608665e-38
-35 9.5561371 -14.8423 1.4479058e-38
-35 -31.980385 -110.7186 0
-35 -69.301941 61.352798 0
-35 74.476509 -73.660919 0
-35 71.396133 -12.757111 1.3004277e-38
-35 8.3919144 75.235298 1.4758153e-38
-35 -55.342896 -88.324295 1.7239163e-38
-35 -30.849571 68.951271 0
-35 53.151794 -76.300018 1.5300398e-38
-35 11.678688 58.393471 0
-35 69.610275 -14.804153 1.3096472e-38
-35 -62.683914 131.66754 0
-35 18.288628 -52.757156 0
-35 -12.423553 43.334267 0
-35 20.852943 -5.0664978 0
-35 -58.865479 19.499199 1.6217807e-38
-35 73.325623 -74.661346 0
-35 76.623611 -74.786484 0
-35 -56.497452 -117.60938 0
-35 21.720367 -28.885818 1.538875e-38
-35 -17.831734 -25.242477 0
-35 66.747322 91.107948 0
-35 45.59687 -21.075104 0
-35 -10.939354 68.351357 1.4479052e-38
-35 -28.838486 -98.798965 0
-35 34.772892 79.275101 0
-35 -13.568588 68.396172 1.4202468e-38
-35 11.083733 -92.878555 0
-35 -39.429825 73.712067 0
-35 30.051086 58.330292 0
-35 -37.120224 -96.282455 1.7330632e-38
-35 -83.015533 -44.536362 0
-35 -12.696991 -98.670685 1.5492822e-38
-35 -65.682434 -103.22313 1.7238439e-38
-35 -69.227661 -116.0307 1.3556059e-38
-35 -60.227264 -118.34592 1.4386896e-38
-35 -80.662582 -122.01508 1.5031153e-38
-35 21.084389 79.205261 0
-35 -82.997742 -7.1516418 0
-35 62.294209 16.894272 1.5202543e-38
-35 -73.510269 26.607834 0
-35 -31.340508 45.333054 1.5583609e-38
-35 -76.945374 -35.748703 1.3080273e-38
-35 24.961143 -27.167282 1.4191995e-38
-35 -66.255127 -76.36264 1.4475838e-38
-35 -29.667366 -24.940948 1.4749898e-38
-35 35.650169 -68.39035 0
-35 55.546673 -83.866364 0
-35 -81.20668 37.209503 0
-35 38.036324 -0.91946411 0
-35 49.009335 66.573326 0
-35 -16.687988 -41.099228 1.650268e-38
-35 51.307762 -55.571976 0
-35 28.618385 -60.683517 1.5670624e-38
-35 47.369705 42.905067 0
-35 -35.774155 80.116898 0
-35 40.724075 69.412239 0
-35 45.743889 -9.4470367 0
-35 -66.07663 -27.192047 0
-35 21.109833 -0.58425903 0
-35 50.916752 1.1542053 0
-35 -78.078857 27.853233 0
-35 -49.085587 82.29454 0
-35 -19.248566 -11.681931 1.6134635e-38
-35 30.121613 73.424133 0
-35 -28.915962 -103.77953 0
-35 -33.883774 -20.09404 0
-35 8.2453156 -59.231857 1.4108092e-38
-35 -83.448624 17.898941 0
-35 -76.878799 134.717 1.2249773e-38
-35 -42.797134 -5.2086639 1.3463119e-38
-35 -79.422379 72.044472 0
-35 -13.743652 -121.54926 0
-35 -52.115433 -106.83112 0
-35 -12.904221 -36.709961 0
-35 34.667366 9.318634 0
-35 75.489372 -30.286041 0
-35 -47.111328 -11.770218 1.548997e-38
-35 76.930084 132.13712 0
-35 -9.6767273 64.959244 1.3742203e-38
-35 53.962017 56.89135 1.2452923e-38
-35 -31.674339 17.323166 0
-35 -57.243668 10.605301 0
-35 49.127968 17.974556 0
-35 -27.980896 51.380753 0
-35 -39.181107 -18.451141 1.5121912e-38
-35 23.7118 53.624672 0
-35 -77.307266 -82.343765 1.7149845e-38
-35 71.6334 63.241249 0
-35 -48.992447 127.70813 0
-35 -4.2550201 70.654785 1.5401365e-38
-35 8.4746475 53.424675 1.2361081e-38
-35 -34.84874 -76.004318 0
-35 22.152718 91.196747 0
-35 -47.737656 -41.002151 1.3279771e-38
-35 -57.005524 -91.760422 1.4746629e-38
-35 -68.120056 -99.428131 1.6317206e-38
-35 -74.818024 20.376266 0
-35 51.205441 57.142311 0
-35 39.482304 -53.01297 1.5487326e-38
-35 -48.299561 -9.8858795 1.5122267e-38
-35 -57.989563 -54.663239 1.6774514e-38
-35 71.758133 95.840775 0
-35 43.900864 -4.2558289 0
-35 46.616329 -34.930237 1.2716509e-38
-35 4.8148651 21.272964 1.6779616e-38
-35 -1.7649994 -34.527863 0
-35 83.946411 -59.022919 0
-35 37.552517 77.782959 0
-35 34.503983 5.62883 0
-35 66.64933 -117.45029 0
-35 -75.723862 33.46965 0
-35 -44.868164 63.470947 0
-35 72.59494 -82.959076 0
-35 5.7260208 -107.55647 0
-35 20.889053 45.688072 0
-35 17.915268 -62.499344 1.4754915e-38
-35 14.030327 45.796883 0
-35 -40.994415 -18.074158 1.5305224e-38
-35 84.965622 -51.030182 0
-35 -47.981888 -42.045639 1.5583222e-38
-35 -14.376358 -13.424271 0
-35 16.753273 -42.808594 1.4848191e-38
-35 -77.057022 54.38562 0
-35 72.713013 67.012047 0
-35 -78.200027 -115.24069 1.539853e-38
-35 -63.449417 2.3329468 0
-35 -10.407646 -2.4367218 1.3830449e-38
-35 -11.152061 -4.1608276 1.4568737e-38
-35 61.512257 58.436653 0
-35 -81.254608 83.678772 0
-35 -50.413742 -81.262375 1.7702688e-38
-35 14.150551 -41.36618 1.4570172e-38
-35 73.78891 -102.81824 0
-35 23.547318 -44.033188 1.4479408e-38
-35 -50.183151 72.519936 0
-35 74.323631 -42.260773 1.5113864e-38
-35 0.15925598 43.691994 0
-35 -83.195877 6.7196808 0
-35 21.546936 -64.527771 0
-35 77.711838 -45.009338 0
-35 -40.050323 -57.338364 1.6309944e-38
-35 6.2185059 -57.717056 1.2632962e-38
-35 -20.428848 87.204742 0
-35 77.353088 -21.653625 0
-35 -6.4028702 -33.633423 1.5124789e-38
-35 -71.568451 -30.36792 0
-35 81.68972 77.065575 1.4285895e-38
-35 -58.992691 85.6745 0
-35 55.838238 10.542877 0
-35 13.127419 23.243065 0
-35 -0.77311707 -56.663132 0
-35 30.581802 -64.383362 1.5943612e-38
-35 -1.5813293 28.853073 1.3091079e-38
-35 10.678741 -49.201645 1.2634415e-38
-35 -44.033981 76.240028 0
-35 5.1843185 -62.155731 1.6407183e-38
-35 -14.886208 -32.847641 0
-35 56.71051 -2.096344 0
-35 -83.283524 -17.858139 0
-35 32.321159 -22.729309 1.4931728e-38
-35 -45.760193 75.5858 0
-35 -18.045746 -61.54068 0
-35 -0.18280792 -48.352966 1.5399214e-38
-35 25.934807 62.368118 0
-35 80.754242 -107.49828 0
-35 -72.005463 -44.418579 1.5202191e-38
-35 -67.870071 13.702057 0
-35 52.59066 18.4468 0
-35 51.808937 -46.652115 1.2626482e-38
-35 -63.408661 11.56929 0
-35 -52.236954 -89.435669 1.7790905e-38
-35 50.500942 72.010391 0
-35 27.394348 -98.466751 0
-35 -50.316849 -73.120834 1.2065736e-38
-35 1.1607361 -12.085236 1.4200673e-38
-35 -38.80336 13.704315 0
-35 -9.6125717 -15.039093 0
-35 79.498909 -104.5172 0
-35 82.092087 79.042015 1.3918188e-38
-35 40.654873 76.557709 0
-35 58.940434 28.54966 0
-35 65.958588 -107.08495 0
-35 -8.7410812 -21.444824 0
-35 -8.284935 -16.620621 0
-35 83.801102 64.368408 1.5210363e-38
-35 -25.791084 -9.3379669 1.3184009e-38
-35 59.716187 86.670746 0
-35 58.870419 -121.34781 0
-35 57.673622 25.941414 0
-35 -46.018372 -16.145966 0
-35 -26.23542 -128.90073 0
-35 43.953114 9.0465851 0
-35 52.836514 -34.557373 1.308277e-38
-35 -1.7162628 2.9406281 1.318291e-38
-35 71.288696 114.42145 0
-35 -76.449066 -122.39261 0
-35 59.151508 -118.81485 0
-35 0.41670227 -114.5495 0
-35 81.05925 -64.611404 0
-35 -78.255051 -1.521759 0
-35 58.875397 66.746864 0
-35 38.123196 91.116005 0
-35 58.558147 -92.724625 0
-35 40.721325 102.17021 0
-35 40.758991 100.88487 0
-35 56.718845 23.142281 0
-35 -62.037582 -114.03372 0
-35 -40.072357 -27.275894 1.4013384e-38
-35 -21.871513 -18.632782 0
-35 9.1538696 9.9835205 0
-35 -35.954132 61.208191 0
-35 -78.35643 11.338608 0
-35 -1.0371857 23.302032 1.2815207e-38
-35 -36.50528 -57.442032 1.8061661e-38
-35 69.264526 -45.437103 1.382892e-38
-35 -63.636368 -91.124512 0
-35 4.3679352 -51.031174 1.3465252e-38
-35 -69.839722 -120.80627 1.3372018e-38
-35 -52.057266 -114.14603 1.6505212e-38
-35 55.364563 -26.570862 0
-35 42.818352 84.643143 0
-35 -51.589172 -48.007248 1.2711122e-38
-35 -52.682037 -46.844482 1.2896595e-38
-35 -46.301956 -94.731705 0
-35 60.449493 -109.1559 0
-35 0.26858521 60.219063 1.4388299e-38
-35 48.100021 -89.301346 0
-35 -2.4357986 -3.3761139 0
-35 25.427208 -19.453796 0
-35 80.768196 -61.60437 1.2540025e-38
-35 -43.941193 -49.059982 1.4271977e-38
-35 -48.617081 94.356857 1.2436941e-38
-35 31.416519 -102.00407 0
-35 54.801155 -38.262924 0
-35 63.595833 -27.118652 0
-35 -27.72068 9.531311 0
-35 22.665123 -24.300278 0
-35 -57.049957 -93.472473 1.5668941e-38
-35 -65.945694 45.549309 0
-35 -63.29306 -93.969177 0
-35 65.351387 42.881172 1.1787329e-38
-35 58.206776 -110.04828 0
-35 -17.186005 77.712837 1.6507373e-38
-35 -47.315933 86.021866 0
-35 78.727371 81.088638 1.2627829e-38
-35 79.363144 70.808563 1.4562484e-38
-35 -70.877899 -0.44363403 1.2264576e-38
-35 -40.328873 -94.100845 0
-35 19.270546 100.45287 0
-35 81.248901 -28.437805 0
-35 22.896454 16.592545 0
-35 62.383198 6.8083038 0
-35 -42.869431 53.37249 0
-35 -20.693542 76.492683 0
-35 40.01231 25.74781 0
-35 -78.449341 -119.18851 1.5398524e-38
-35 3.7391129 28.457367 1.327583e-38
-35 23.630569 20.027718 0
-35 84.266182 -34.646576 0
-35 -26.358856 21.528595 0
-35 70.217117 55.190063 0
-35 -44.636826 -114.78116 1.5489254e-38
-35 62.544529 128.40373 0
-35 -50.069321 22.767311 0
-35 73.203789 106.44777 1.2810767e-38
-35 32.940418 73.520828 0
-35 -37.267593 97.537369 1.400389e-38
-35 -47.788071 -29.515808 1.6595579e-38
-35 -57.639282 80.414391 0
-35 -20.318863 96.806541 1.446597e-38
-35 -46.783966 24.802986 0
-35 19.23156 103.3158 1.3269573e-38
-35 83.468323 62.042076 1.5117089e-38
-35 -53.143631 2.9258728 0
-35 -5.4222717 98.312653 1.3821316e-38
-35 72.9767 126.68555 0
-35 -40.531128 41.268059 0
-35 8.0584641 91.435867 0
-35 15.604362 -119.61316 0
-35 -34.959457 -93.130066 1.3736098e-38
-35 -76.096603 -110.80701 0
-35 -74.986099 -7.2468719 0
-35 55.404839 45.098381 0
-35 -50.777298 94.553734 1.4371962e-38
-35 -43.070068 -74.108063 0
-35 -40.808151 -67.267563 0
-35 77.963425 -125.40723 0
-35 -47.520294 96.764572 1.4280472e-38
-35 -56.197052 -99.120377 1.696041e-38
-35 -24.406448 96.594467 1.4282295e-38
-35 -55.751587 3.0806274 0
-35 -79.289566 -61.217575 1.1784805e-38
-35 -28.350883 -68.587769 0
-35 44.524239 80.411674 0
-35 29.86438 -48.203094 0
-35 22.230431 13.25705 0
-35 33.229721 -41.361801 1.3178929e-38
-35 67.994713 120.50244 1.6224604e-38
-35 84.136444 -7.4255829 1.2533464e-38
-35 -53.851974 -1.3681641 1.309434e-38
-35 59.730431 37.303154 0
-35 -37.551926 95.426865 1.2344383e-38
-35 4.6775513 99.403648 1.2808972e-38
-35 57.139786 103.7226 1.2346915e-38
-35 39.439465 -86.125122 0
-35 -39.272232 88.488251 0
-35 66.039459 -99.732925 0
-35 26.87468 34.997749 0
-35 44.660866 -60.599655 1.5210012e-38
-35 -44.656082 -56.145508 1.7784358e-38
-35 12.624245 -1.2099762 1.2633349e-38
-35 -37.234879 -46.825821 1.3721673e-38
-35 57.772156 -105.71643 0
-35 -50.486664 97.58033 1.4647825e-38
-35 -44.354919 -35.304291 1.3184712e-38
-35 18.427879 -109.15076 0
-35 74.787369 122.59064 0
-35 81.478683 92.962227 1.2534905e-38
-35 35.520714 -109.82941 0
-35 -53.976151 -9.4409027 0
-35 -57.029587 96.601959 1.2897554e-38
-35 -16.768143 -71.278488 0
-35 -38.871567 -43.866364 0
-35 -7.9498367 101.49287 1.3820226e-38
-35 -44.186234 123.21685 0
-35 71.932999 123.63726 0
-35 -39.435852 -45.166916 1.2803675e-38
-35 5.9071121 9.3514252 0
-35 -7.0005341 19.945999 1.2353512e-38
-35 -74.621826 -1.2965088 0
-35 3.3556519 -3.8847351 0
-35 6.1839828 -119.28961 0
-35 -61.348145 93.508621 1.4097542e-38
-35 -54.372101 100.4775 1.1972009e-38
-35 17.944069 -71.872391 1.6499781e-38
-35 -34.693359 76.000023 0
-35 -62.557617 93.722176 1.4649637e-38
-35 8.6302948 99.452682 1.2162888e-38
-35 31.400993 -27.586212 0
-35 -8.6489105 131.76498 0
-35 -32.056015 92.190781 1.4187239e-38
-35 -5.4846802 25.333168 1.2538268e-38
-35 -35.793503 -100.36017 0
-35 62.831318 26.560616 0
-35 -57.982376 93.546234 1.2621334e-38
-35 3.8280106 -77.606888 0
-35 -54.0401 -65.435211 0
-35 57.489937 106.09018 1.2991556e-38
-35 0.26326752 9.3379822 1.3368383e-38
-35 -68.920227 69.750435 0
-35 -28.050308 -48.717117 1.3995744e-38
-35 -22.18203 118.37488 0
-35 -47.299789 -66.421921 0
-35 -0.21177673 101.30971 1.2990468e-38
-35 -7.0879364 -68.999924 0
-35 -45.252258 -69.551727 0
-35 -5.2447433 1.1779327 1.4566926e-38
-35 -35.689728 -10.893448 1.4200319e-38
-35 -48.578323 -34.920502 0
-35 -32.385101 78.692062 0
-35 61.882427 -8.1822205 0
-35 37.938389 38.080788 0
-35 14.381279 -10.798523 1.3739692e-38
-35 -74.475128 41.347214 0
-35 78.870216 29.772255 0
-35 -0.95523834 -129.33221 0
-35 5.8170776 100.84955 1.2809677e-38
-35 -27.927597 -44.644897 1.2619646e-38
-35 4.4573593 101.74815 1.2900802e-38
-35 -36.336227 -42.112244 1.2445691e-38
-35 -64.649673 -63.605713 1.1875566e-38
-35 76.180077 57.224228 0
-35 -19.249435 127.08241 0
-35 -11.397545 -68.553101 0
-35 -5.4831314 -24.121399 0
-35 -41.83667 89.419838 0
-35 -45.226364 -5.623291 1.3555305e-38
-35 74.79213 51.043571 0
-35 -45.261963 -59.526276 1.8063092e-38
-35 60.934887 -58.43631 0
-35 -14.140175 4.7645569 1.1986536e-38
-35 71.056519 33.585403 0
-35 79.571266 -123.7944 0
-35 81.387047 -87.645004 0
-35 -78.398987 91.31311 1.3263485e-38
-35 56.933697 -30.39859 1.2436321e-38
-35 36.435215 37.774864 0
-35 26.322128 128.41672 0
-35 -75.62915 96.663559 1.2433361e-38
-35 -33.136429 93.673744 0
-35 73.413788 49.516838 0
-35 73.998627 -127.27612 0
-35 -34.680847 98.204239 1.4187927e-38
-35 -3.5937881 11.943939 1.4752038e-38
-35 -45.703369 2.5854034 0
-35 54.60463 2.9765167 0
-35 29.488899 112.92046 0
-35 -22.07058 -53.700378 1.3167776e-38
-35 -8.7067261 -74.736359 0
-35 30.278847 96.495033 1.206999e-38
-35 52.594078 114.56702 0
-35 -71.765396 -62.30014 0
-35 -9.9702988 -72.54129 0
-35 50.428818 114.36129 0
-35 -21.296906 3.9212341 0
-35 76.486931 47.449532 0
-35 55.371822 116.42544 0
-35 -9.6730042 82.182487 0
-35 -74.419769 -59.508301 0
-35 47.024467 127.802 0
-35 45.274715 -124.14844 0
-35 73.3797 24.11351 0
-35 -0.45098114 98.703842 1.3083387e-38
-35 38.769379 -30.466385 0
-35 -3.0746155 -19.183487 0
-35 4.5492783 127.30599 0
-35 47.960262 96.742416 0
-35 84.088531 41.354683 1.2716058e-38
-35 22.016342 -56.889618 0
-35 25.755669 127.02405 0
-35 25.645668 -65.347046 1.5580274e-38
-35 28.51458 116.67922 0
-35 67.903488 57.265884 1.400869e-38
-35 79.84581 18.057755 0
-35 -40.06781 29.323967 0
-35 -0.65724182 -70.479004 0
-35 -16.588463 9.0981903 0
-35 26.114517 131.55899 0
-35 2.5794601 126.86366 0
-35 -17.590279 22.368011 0
-35 -7.3063736 34.166496 0
-35 13.172729 99.787498 0
-35 12.144958 107.8562 0
-35 51.785206 49.825714 0
-35 -5.3641968 -112.99414 0
-35 -42.941238 -49.647751 1.4272333e-38
-35 7.1476669 113.15485 0
-35 64.256973 -8.6464386 0
-35 -1.1217499 37.439072 0
-35 -4.1906815 127.59947 0
-35 -0.22483063 -18.557602 1.3370914e-38
-35 70.744453 76.398666 0
-35 -13.910995 123.23043 0
-35 -13.343689 108.07598 0
-35 -49.380768 -0.22732544 0
-35 -36.86554 -7.5020905 1.3648592e-38
-35 -10.350433 -33.594742 0
-35 54.365681 35.634613 0
-35 41.884975 -91.31192 0
-35 -32.961594 -40.722656 1.1894324e-38
-35 -42.942444 97.727692 1.4831864e-38
-35 -67.870163 6.1069946 0
-35 -43.733322 30.082603 0
-35 -29.965065 103.80025 0
-35 -71.867508 -53.417297 1.5944401e-38
-35 34.480766 128.47971 0
-35 27.218376 9.8766479 0
-35 48.059872 98.050919 1.2992311e-38
-35 -72.629593 15.814346 0
-35 -16.256538 -17.728851 1.4659142e-38
-35 -40.857025 120.01587 0
-35 -27.728401 -52.29245 1.3812432e-38
-35 -47.837418 115.85117 0
-35 82.172676 -2.4535065 1.3270672e-38
-35 48.415318 -125.51895 0
-35 -41.926376 127.61084 0
-35 37.724884 128.10211 0
-35 -13.696846 -56.856308 1.2529224e-38
-35 -59.673004 118.98579 0
-35 -80.060577 -65.821899 1.2895497e-38
-35 -13.973747 120.83807 1.4752706e-38
-35 35.541855 -32.9646 1.1793837e-38
-35 -4.8291321 123.46788 0
-35 29.88662 -35.408966 1.3634864e-38
-35 -13.316704 -53.265015 1.3637383e-38
-35 44.658691 -33.659454 1.2809784e-38
5.1278877 -96 104.11591 1.6405329e-38
15.927837 -96 -101.10713 0
21.420284 -96 97.515022 0
-0.68275833 -96 83.485939 1.6499079e-38
-17.915392 -96 86.494156 0
-17.101675 -96 -49.564392 1.2170211e-38
-6.7331543 -96 -58.241547 1.6317926e-38
-6.6726265 -96 -53.474762 1.6407608e-38
12.030972 -96 111.27977 1.2623964e-38
-7.8858414 -96 -60.648544 1.6410484e-38
-10.579191 -96 -11.447922 0
-14.866432 -96 77.651512 1.3458415e-38
-19.29899 -96 104.70239 0
-12.663935 -96 99.022644 0
-7.5737934 -96 -49.478699 1.5032596e-38
-5.3012924 -96 -59.477524 1.6594513e-38
15.170773 -96 88.636978 1.2354231e-38
10.499523 -96 -106.88136 0
8.0069389 -96 -104.72482 0
-12.592278 -96 75.717926 1.4010884e-38
3.0559845 -96 -26.999191 0
14.063663 -96 -93.750824 0
-4.7243843 -96 -50.650528 1.6043147e-38
12.895573 -96 88.719925 1.6410487e-38
12.698597 -96 126.07837 0
-21.235584 -96 -1.8589935 0
16.708755 -96 90.332741 1.6319731e-38
-14.005732 -96 21.838554 1.2715054e-38
22.796181 -96 89.49324 1.4200282e-38
-4.6091442 -96 105.7455 0
3.6691513 -96 93.933044 0
-9.8217144 -96 79.68792 1.5580708e-38
-3.7243462 -96 103.3833 0
12.746037 -96 119.01078 0
-6.3443737 -96 78.245346 1.1891466e-38
-12.809599 -96 -118.49246 0
14.410435 -96 21.793205 1.3820701e-38
-17.826086 -96 -55.555099 1.7236289e-38
-11.395149 -96 -118.46045 0
-10.73543 -96 83.000748 1.2815948e-38
14.077694 -96 -13.006882 1.3737487e-38
-3.1426468 -96 90.55011 0
4.6668015 -96 116.54404 0
12.104465 -96 122.69122 0
2.8974762 -96 -106.27821 0
-18.085939 -96 -2.1471863 0
-6.7865009 -96 84.219925 0
-16.83601 -96 -89.307098 0
-12.990713 -96 -21.11293 0
-11.967165 -96 110.62425 0
14.088531 -96 2.2796021 0
15.738262 -96 -18.153809 0
-18.749403 -96 -113.73148 1.5578797e-38
-6.8123608 -96 -19.134796 0
10.283611 -96 -9.3375092 0
6.1174202 -96 -17.475708 0
-4.1177025 -96 -20.811752 0
-0.89334488 -96 -18.377808 0
-20.876249 -96 -68.453033 0
5.8561249 -96 21.634689 1.2623237e-38
-16.782024 -96 -69.581421 0
4.672718 -96 -8.7554169 0
-20.014666 -96 -100.99231 0
-0.40034485 -96 -89.572205 0
-0.71208191 -96 -113.18704 1.5489142e-38
-0.34487915 -96 45.419533 0
-17.055033 -96 -80.517242 0
-12.286556 -96 -72.067703 0
9.7125359 -96 -113.64203 1.631564e-38
12.635582 -96 -20.587341 0
17.32922 -96 -67.137848 0
10.631954 -96 -80.853683 0
8.6911469 -96 -127.27933 1.6318638e-38
14.192642 -96 -59.871002 1.1801074e-38
10.735779 -96 -59.733063 1.3459154e-38
-14.474268 -96 -106.80067 0
-12.728502 -96 41.481453 0
23.257538 -96 6.5417938 0
4.5139542 -96 41.088135 1.392074e-38
6.3210373 -96 -90.109451 0
-11.339647 -96 46.54657 0
10.83131 -96 -62.040955 1.5582893e-38
-4.5172672 -96 -40.23439 0
-18.318199 -96 36.538628 0
15.02153 -96 -70.878387 0
19.190765 -96 -30.010727 0
11.020443 -96 -42.625732 0
-1.1708832 -96 68.044968 0
18.145397 -96 -113.62674 1.668297e-38
10.836884 -96 -40.336166 0
1.4098129 -96 -42.134842 0
-18.919233 -96 12.803925 0
14.423622 -96 -132.22458 0
-12.597895 -96 -126.7117 1.5581427e-38
1.2132263 -96 21.48774 1.3541951e-38
-17.27557 -96 -94.828705 0
-13.137035 -96 -122.259 1.6038688e-38
18.094254 -96 45.325539 0
13.874496 -96 -50.894104 1.2998894e-38
-0.62947464 -96 -86.260345 0
19.906563 -96 40.451759 1.5027812e-38
13.427643 -96 -1.1153564 1.235606e-38
-13.582043 -96 -104.73409 0
13.629196 -96 12.998688 0
-7.5685654 -96 36.868294 0
10.310287 -96 -55.195847 1.3553499e-38
7.2117691 -96 36.435997 0
15.482929 -96 12.861481 0
-4.4328308 -96 33.373627 0
14.516373 -96 -124.57089 1.5576687e-38
4.5338974 -96 79.720909 1.4752425e-38
-2.4585114 -96 7.0053864 0
-15.163292 -96 38.147781 0
-22.49832 -96 -80.296204 0
7.9351692 -96 41.325226 1.3642711e-38
8.8321915 -96 69.858421 0
-6.9571114 -96 -34.163055 0
7.078846 -96 -59.988571 0
-4.4485073 -96 28.592407 0
0.56636047 -96 129.17529 0
6.0044785 -96 -55.065292 1.3553499e-38
5.8724861 -96 -53.772324 1.5213386e-38
5.2822456 -96 7.1768799 0
0.65513611 -96 8.3603973 0
9.6201096 -96 -119.15125 1.5484073e-38
6.0210419 -96 52.449928 0
6.4260178 -96 45.039841 0
-4.5536728 -96 2.5298309 0
8.4355888 -96 28.645767 0
10.083069 -96 13.352661 0
-4.7531967 -96 -113.66031 1.5394756e-38
6.4581413 -96 59.391045 0
3.7559166 -96 77.960335 0
4.9755745 -96 58.871201 0
1.5415955 -96 52.344421 0
-4.7038975 -96 -4.181427 0
-6.3249836 -96 40.428856 0
-10.264061 -96 -104.67059 0
-8.121933 -96 -128.12906 0
1.2176704 -96 -56.336853 1.2999246e-38
-5.715456 -96 -115.28555 1.5945053e-38
20.363689 -96 -123.27173 1.7511649e-38
