ply
format ascii 1.0
element face 0
property list uchar int vertex_indices
element vertex 524
property float x
property float y
property float z
property uchar diffuse_red
property uchar diffuse_green
property uchar diffuse_blue
end_header
1.902935e+00 -1.143514e+00 -6.797929e+00 203 182 70
2.185854e+00 -8.773221e-01 -6.244180e+00 221 195 83
2.185854e+00 -8.773221e-01 -6.244180e+00 221 195 83
2.206819e+00 -8.679418e-01 -6.207891e+00 177 153 51
2.202079e+00 -7.621899e-01 -6.212767e+00 214 189 76
2.193547e+00 -8.036842e-01 -6.225785e+00 215 192 85
2.164670e+00 -9.728883e-01 -6.281269e+00 212 189 70
2.216643e+00 -6.877852e-01 -6.195251e+00 215 190 73
1.900112e+00 -1.100257e+00 -6.789944e+00 41 28 0
1.900112e+00 -1.100257e+00 -6.789944e+00 41 28 0
2.544906e+00 -3.615936e-01 -5.393590e+00 234 192 195
2.537139e+00 -4.122791e-01 -5.411040e+00 240 179 181
-9.071499e-01 5.251857e-01 -4.581255e+00 22 27 46
-9.056683e-01 5.256331e-01 -4.581279e+00 22 27 46
-9.056683e-01 5.256331e-01 -4.581279e+00 22 27 46
-8.718533e-01 -2.298448e-01 -5.068152e+00 23 24 28
8.687951e-01 6.039003e-02 -5.677042e+00 210 177 196
5.601335e-02 3.550872e-01 -5.551221e+00 144 19 27
-9.523665e-01 6.409495e-01 -4.604953e+00 201 211 244
1.034651e+00 -2.779916e-03 -5.499160e+00 173 109 126
1.004033e+00 5.746839e-01 -5.531676e+00 213 193 208
1.004033e+00 5.746839e-01 -5.531676e+00 213 193 208
3.640550e-01 4.977696e-01 -5.415467e+00 73 2 3
-8.904082e-01 3.972836e-01 -4.636945e+00 190 201 238
4.586016e-01 1.002741e+00 -5.580451e+00 163 18 29
2.340904e+00 -1.136036e+00 -5.889078e+00 202 197 105
-7.868803e-04 4.554527e-01 -5.518061e+00 224 55 94
-7.868803e-04 4.554527e-01 -5.518061e+00 224 55 94
8.287678e-01 5.679578e-01 -5.532646e+00 95 0 2
-5.922661e-01 4.505236e-01 -4.656266e+00 108 54 70
1.576692e-01 6.567320e-01 -5.433219e+00 218 203 221
4.025410e-01 1.095296e+00 -5.589917e+00 171 150 172
2.526940e+00 -4.746748e-01 -5.385334e+00 226 182 185
2.526940e+00 -4.746748e-01 -5.385334e+00 226 182 185
9.608201e-01 1.639849e-01 -5.734151e+00 99 3 5
-5.064482e-01 3.180831e-01 -4.602803e+00 156 98 112
1.043629e+00 6.637693e-01 -5.529959e+00 45 10 7
1.171886e-01 5.838141e-01 -5.416541e+00 82 11 26
-6.079207e-01 4.938712e-01 -4.645287e+00 235 181 194
-9.963271e-01 4.747538e-01 -4.608512e+00 183 230 255
-8.572672e-01 7.623685e-01 -4.538947e+00 225 165 176
9.564258e-01 -1.734158e-02 -5.631013e+00 66 13 22
1.241234e+00 9.761426e-02 -5.528441e+00 95 35 39
1.117215e+00 1.045651e-01 -5.584534e+00 172 101 113
7.177988e-01 1.727795e-01 -5.697693e+00 111 13 20
2.088419e+00 3.453423e-01 -6.449733e+00 147 111 51
9.122070e-01 6.123545e-01 -5.528026e+00 104 11 16
-9.551709e-02 6.167694e-01 -5.430251e+00 106 9 21
-9.180265e-01 4.929682e-01 -4.596579e+00 255 254 254
-9.277017e-01 7.746836e-01 -4.548360e+00 224 166 176
-9.623308e-01 7.715650e-01 -4.550110e+00 227 167 179
-1.069593e+00 7.715770e-01 -4.563152e+00 133 74 96
4.331968e-01 1.144528e+00 -5.582298e+00 161 21 32
1.589712e+00 1.290064e+00 -5.311338e+00 69 31 28
1.589712e+00 1.290064e+00 -5.311338e+00 69 31 28
2.724529e+00 -2.884690e+00 -9.903089e+00 59 47 61
2.154595e+00 -8.573676e-01 -6.324732e+00 216 192 86
9.159020e-01 -2.917106e-02 -5.669294e+00 173 134 153
2.131949e+00 6.037129e-01 -6.315797e+00 111 64 25
-1.021797e+00 4.455258e-01 -4.593732e+00 168 157 198
-6.527993e-01 6.287648e-01 -4.573894e+00 170 104 126
-9.522044e-01 7.409448e-01 -4.542832e+00 174 107 127
-9.522044e-01 7.409448e-01 -4.542832e+00 174 107 127
1.709772e+00 1.415022e+00 -5.460561e+00 69 30 30
2.549782e+00 -2.936992e+00 -1.031815e+01 103 99 121
2.297905e+00 -3.044085e+00 -1.110139e+01 108 101 118
1.777647e+00 -3.421473e+00 -1.263442e+01 97 90 106
2.640736e+00 -2.604688e+00 -1.012842e+01 119 113 129
2.566968e+00 -2.621077e+00 -1.027501e+01 67 55 65
2.414345e+00 -2.586035e+00 -1.067935e+01 64 53 67
2.414345e+00 -2.586035e+00 -1.067935e+01 64 53 67
2.326246e+00 -2.379691e+00 -1.101305e+01 73 53 61
2.278939e+00 -2.386210e+00 -1.107371e+01 124 120 134
2.278939e+00 -2.386210e+00 -1.107371e+01 124 120 134
2.324486e+00 -2.262511e+00 -1.090046e+01 121 117 134
2.513051e+00 -5.810653e-01 -5.458083e+00 240 183 194
2.531924e+00 -5.463897e-01 -5.397115e+00 243 196 214
2.539699e+00 -4.615429e-01 -5.373796e+00 234 171 187
2.210819e+00 -5.913780e-01 -6.197219e+00 177 147 41
2.541262e+00 -4.077385e-01 -5.339962e+00 237 187 201
9.635607e-01 2.158895e-02 -5.632068e+00 171 124 141
-5.340792e-01 -2.049154e-02 -4.746996e+00 226 178 187
-4.845446e-01 1.022003e-01 -4.663364e+00 157 101 112
-4.845446e-01 1.022003e-01 -4.663364e+00 157 101 112
-9.335999e-01 9.667235e-02 -4.629337e+00 215 151 168
-4.917130e-01 2.628656e-01 -4.614584e+00 158 99 111
1.049786e-01 6.127762e-01 -5.400096e+00 233 218 229
1.334858e-01 6.321229e-01 -5.399724e+00 229 219 231
-9.034005e-01 6.549752e-01 -4.577840e+00 241 217 230
3.761085e-01 9.523242e-01 -5.570061e+00 203 132 150
-9.087159e-01 7.443952e-01 -4.544681e+00 178 107 123
-9.902023e-01 7.559540e-01 -4.543863e+00 232 172 179
4.337090e-01 1.065643e+00 -5.580832e+00 151 23 55
2.759198e+00 -3.327852e+00 -9.824536e+00 111 102 120
2.446727e+00 -3.640689e+00 -1.072184e+01 100 95 113
2.543299e+00 -3.484498e+00 -1.048510e+01 114 111 129
2.560712e+00 -3.148481e+00 -1.039588e+01 117 106 126
2.459399e+00 -2.925169e+00 -1.061868e+01 57 46 60
2.103526e+00 -2.223624e+00 -1.148566e+01 107 92 111
1.910470e+00 -2.390254e+00 -1.215948e+01 97 87 99
2.538671e+00 -6.811036e-01 -5.385262e+00 247 138 75
2.196673e+00 -8.046877e-01 -6.232251e+00 215 192 85
2.540957e+00 -5.035546e-01 -5.381503e+00 249 179 194
2.523350e+00 -4.896380e-01 -5.419930e+00 234 189 194
-1.139394e-01 5.874667e-01 -5.396794e+00 209 176 193
1.570724e+00 1.072357e+00 -5.221538e+00 159 96 109
5.575907e-01 1.002454e+00 -5.592804e+00 212 136 155
-3.190353e-02 5.289662e-01 -5.484737e+00 243 238 244
1.985947e+00 8.312103e-01 -6.282840e+00 193 133 142
2.103186e+00 -6.244694e-01 -6.360292e+00 219 186 70
-8.293534e-02 3.104126e-01 -5.575473e+00 235 234 243
-2.926158e-03 1.510575e+00 -5.908673e+00 161 16 26
-6.492737e-02 1.943600e-01 -5.743379e+00 198 31 51
1.330404e+00 2.119032e-01 -5.577498e+00 188 119 130
1.420228e+00 3.312749e-01 -5.725188e+00 65 8 8
1.263055e+00 1.249425e+00 -5.389436e+00 184 137 151
-3.000720e+00 3.186420e+00 -1.215129e+01 24 22 27
-3.000720e+00 3.186420e+00 -1.215129e+01 24 22 27
-1.275886e+00 -2.911943e+00 -1.261860e+01 63 59 70
-1.511597e-01 2.371150e-01 -5.640774e+00 231 213 229
-1.274519e-01 7.048603e-01 -5.459692e+00 193 32 49
2.341297e+00 -1.136804e+00 -5.889956e+00 202 197 105
1.173668e+00 1.273026e-01 -5.572555e+00 189 123 137
2.745396e-01 5.204418e-01 -5.428755e+00 230 208 219
-1.126603e-01 5.697584e-01 -5.503514e+00 221 208 222
-1.238579e-01 6.999825e-01 -5.422705e+00 195 34 51
-5.571236e-02 7.737354e-01 -5.493385e+00 90 1 7
1.190371e+00 1.320151e+00 -5.985577e+00 157 20 30
1.567662e+00 1.439795e+00 -5.427184e+00 168 118 129
8.357238e-01 -4.973460e+00 -1.478037e+01 42 42 51
2.403631e+00 -3.669775e+00 -1.090093e+01 37 33 48
2.403631e+00 -3.669775e+00 -1.090093e+01 37 33 48
3.017128e+00 -2.944803e+00 -9.138530e+00 60 49 64
2.425303e+00 -2.051114e+00 -8.240494e+00 188 174 148
4.834848e-01 -3.258651e+00 -1.314552e+01 105 81 64
2.547619e+00 -3.520107e-01 -5.350300e+00 224 181 193
2.547619e+00 -3.520107e-01 -5.350300e+00 224 181 193
5.968006e-01 1.708925e+00 -5.884944e+00 68 1 1
2.688046e+00 -3.221612e+00 -1.002385e+01 53 42 51
2.683926e+00 -3.215602e+00 -1.000733e+01 53 42 51
1.750194e+00 -3.702070e+00 -1.257336e+01 10 10 12
1.764911e+00 -3.733148e+00 -1.267151e+01 10 10 12
2.312794e+00 -1.949911e+00 -8.542125e+00 178 170 140
1.534032e+00 -2.607059e+00 -1.254696e+01 110 83 65
1.398145e+00 -2.550216e+00 -1.253316e+01 18 29 45
2.056302e+00 -2.167627e+00 -1.161516e+01 54 40 42
2.512302e+00 -5.859103e-01 -5.392706e+00 225 192 209
8.271739e-01 1.310970e-01 -5.766075e+00 138 31 47
5.558598e-01 1.344382e-01 -5.709193e+00 211 42 80
-9.491596e-01 5.981218e-01 -4.581399e+00 179 225 255
-1.005880e+00 7.920933e-01 -4.546779e+00 152 97 120
1.711538e+00 1.414913e+00 -5.465519e+00 69 30 30
2.342721e+00 -3.931435e+00 -1.101148e+01 84 79 97
2.549412e+00 -3.334360e+00 -1.048965e+01 98 89 106
2.873874e+00 -2.887634e+00 -9.430379e+00 56 43 54
2.525377e+00 -2.996819e+00 -1.048820e+01 59 52 64
2.525377e+00 -2.996819e+00 -1.048820e+01 59 52 64
1.591796e+00 -3.256221e+00 -1.318546e+01 81 74 84
1.655269e+00 -2.785789e+00 -1.274123e+01 47 38 45
1.975745e+00 -2.331141e+00 -1.180340e+01 52 42 43
1.907488e+00 -1.146476e+00 -6.812655e+00 203 182 70
2.516689e+00 -5.884869e-01 -5.400861e+00 228 196 213
5.422922e-01 -2.684200e-01 -5.691102e+00 123 6 14
5.422922e-01 -2.684200e-01 -5.691102e+00 123 6 14
2.142429e+00 -2.672370e-01 -6.176743e+00 114 69 10
-9.018034e-01 -1.814389e-01 -5.018447e+00 35 44 92
1.203528e+00 1.928080e-01 -5.614531e+00 173 95 107
4.835018e-01 2.319711e-01 -5.689857e+00 124 4 14
2.115941e+00 2.896257e-01 -6.435941e+00 84 49 7
-3.981136e-01 4.317508e-01 -4.650215e+00 207 155 168
2.182099e+00 6.288355e-01 -6.311576e+00 176 139 90
-6.261126e-01 5.789673e-01 -4.595666e+00 189 126 143
-6.261126e-01 5.789673e-01 -4.595666e+00 189 126 143
-7.925440e-01 5.913436e-01 -4.618363e+00 247 228 240
2.934419e-01 6.973800e-01 -5.345602e+00 219 197 209
4.417407e-01 7.148511e-01 -5.404125e+00 246 224 228
4.417407e-01 7.148511e-01 -5.404125e+00 246 224 228
-6.524832e-01 6.292111e-01 -4.575064e+00 170 104 126
-7.266170e-03 8.108670e-01 -5.527042e+00 175 25 37
-7.387709e-01 6.910909e-01 -4.553711e+00 233 178 193
-1.047733e+00 7.443482e-01 -4.559783e+00 229 167 180
4.269444e-01 1.144859e+00 -5.572242e+00 155 24 37
1.223806e+00 1.123492e+00 -5.207043e+00 184 132 144
2.829234e+00 -3.154850e+00 -9.619054e+00 52 45 58
2.447276e+00 -3.428824e+00 -1.068582e+01 105 97 118
2.843531e+00 -3.013679e+00 -9.611667e+00 119 111 128
2.177101e+00 -3.525286e+00 -1.138316e+01 85 77 96
2.123922e+00 -3.477753e+00 -1.156394e+01 39 35 49
2.802735e+00 -2.780373e+00 -9.684782e+00 57 41 47
2.802735e+00 -2.780373e+00 -9.684782e+00 57 41 47
2.411826e+00 -2.901144e+00 -1.082787e+01 57 46 55
1.641760e+00 -3.463904e+00 -1.295720e+01 88 85 103
2.464854e+00 -2.154677e+00 -8.194500e+00 187 178 143
1.701170e+00 -3.085336e+00 -1.275152e+01 54 48 60
2.312957e+00 -2.024283e+00 -8.486534e+00 113 98 80
2.111974e+00 -2.412782e+00 -1.156885e+01 63 47 56
1.961122e+00 -2.251307e+00 -1.200068e+01 61 47 49
1.797377e+00 -2.149271e+00 -1.240270e+01 62 47 49
2.203595e+00 -8.506550e-01 -6.272227e+00 214 191 78
2.517047e+00 -6.135659e-01 -5.470065e+00 221 70 104
2.060486e+00 -5.436732e-01 -6.515164e+00 228 191 78
2.253286e+00 -4.563560e-01 -6.129451e+00 229 196 57
2.253286e+00 -4.563560e-01 -6.129451e+00 229 196 57
8.370795e-01 -3.538434e-01 -5.487607e+00 170 47 61
2.201463e+00 -3.434958e-01 -6.183920e+00 98 62 2
2.174282e+00 -3.043806e-01 -6.186208e+00 121 76 14
2.556388e+00 -2.346585e-01 -5.341433e+00 240 192 195
-5.236555e-01 2.163878e-02 -4.702831e+00 218 170 181
-4.585945e-01 1.957410e-01 -4.650466e+00 225 164 172
2.137056e+00 3.043144e-01 -6.387880e+00 176 139 48
-3.640280e-01 4.784417e-01 -4.719611e+00 220 191 199
-1.042677e+00 4.890354e-01 -4.611820e+00 173 160 196
3.761856e-01 6.559777e-01 -5.417292e+00 243 214 219
1.561332e-01 7.041734e-01 -5.447194e+00 71 6 13
-9.903738e-01 6.307072e-01 -4.578381e+00 242 226 244
-9.139272e-01 7.184821e-01 -4.546303e+00 228 165 173
-9.692954e-01 8.034928e-01 -4.559085e+00 157 100 122
8.275506e-02 1.502504e+00 -5.864865e+00 108 2 1
-3.873409e+00 3.957072e+00 -1.174742e+01 147 93 87
2.213367e+00 -3.962117e+00 -1.133832e+01 51 45 59
2.253992e+00 -3.905959e+00 -1.122156e+01 89 87 105
9.889557e-01 -5.099448e+00 -1.469906e+01 49 48 57
2.587961e+00 -3.561235e+00 -1.037527e+01 111 107 131
2.243093e+00 -3.789802e+00 -1.118476e+01 88 85 102
2.702023e+00 -3.375960e+00 -1.004543e+01 59 54 71
3.009807e+00 -3.042707e+00 -9.170406e+00 56 47 63
2.396088e+00 -3.507368e+00 -1.089326e+01 100 96 119
2.319776e+00 -3.517132e+00 -1.103114e+01 56 46 58
2.372141e+00 -3.306479e+00 -1.083121e+01 53 46 61
2.529899e+00 -3.175642e+00 -1.046232e+01 68 58 74
2.159467e+00 -3.432749e+00 -1.148661e+01 88 81 97
1.634040e+00 -3.872742e+00 -1.300215e+01 36 26 32
2.516814e+00 -3.101248e+00 -1.052168e+01 101 93 110
1.979105e+00 -3.510938e+00 -1.200141e+01 52 47 68
1.979297e+00 -3.508840e+00 -1.199649e+01 52 47 68
2.670650e+00 -2.840140e+00 -1.002164e+01 46 34 46
2.102864e+00 -3.299181e+00 -1.172339e+01 90 78 86
2.102864e+00 -3.299181e+00 -1.172339e+01 90 78 86
1.979085e+00 -3.163381e+00 -1.196040e+01 57 49 60
1.977193e+00 -3.082200e+00 -1.192022e+01 89 85 99
1.977193e+00 -3.082200e+00 -1.192022e+01 89 85 99
2.045817e+00 -2.901358e+00 -1.176698e+01 66 59 74
2.045817e+00 -2.901358e+00 -1.176698e+01 66 59 74
2.503333e+00 -2.560844e+00 -1.047170e+01 106 99 115
2.503333e+00 -2.560844e+00 -1.047170e+01 106 99 115
2.415214e+00 -2.586216e+00 -1.068317e+01 64 53 67
1.262792e+00 -3.039423e+00 -1.403668e+01 74 67 78
2.339715e+00 -1.132662e+00 -5.885863e+00 197 196 106
2.334853e+00 -2.053699e+00 -1.092894e+01 71 60 79
2.188856e+00 -2.034545e+00 -1.116795e+01 91 79 87
2.188856e+00 -2.034545e+00 -1.116795e+01 91 79 87
2.021242e+00 -2.050999e+00 -1.171456e+01 62 50 55
2.561041e+00 -2.912447e-01 -5.311747e+00 234 190 210
2.567662e+00 -1.952065e-01 -5.338239e+00 237 193 207
-7.917813e-01 4.695198e-01 -4.599864e+00 181 161 192
-6.087230e-03 5.823262e-01 -5.398137e+00 194 171 186
-9.955642e-01 5.150352e-01 -4.584861e+00 147 198 227
7.113885e-02 5.969813e-01 -5.396669e+00 239 225 235
-8.642738e-01 6.443722e-01 -4.574029e+00 235 199 216
5.266873e-01 8.790944e-01 -5.548486e+00 204 160 177
-7.615051e-01 7.452764e-01 -4.554357e+00 146 87 107
3.766485e-01 9.527523e-01 -5.570646e+00 203 132 150
-8.686729e-01 8.221868e-01 -4.565297e+00 216 161 173
-3.869126e+00 3.499425e+00 -1.172152e+01 144 79 71
-5.258929e+00 3.541236e+00 -1.139565e+01 128 72 58
-5.258929e+00 3.541236e+00 -1.139565e+01 128 72 58
-5.408851e+00 3.529020e+00 -1.131897e+01 126 72 64
-5.408851e+00 3.529020e+00 -1.131897e+01 126 72 64
-3.278961e+00 3.679424e+00 -1.185373e+01 142 89 80
-3.278961e+00 3.679424e+00 -1.185373e+01 142 89 80
-4.836669e+00 3.733677e+00 -1.145866e+01 134 72 65
-4.785298e+00 3.814217e+00 -1.140671e+01 135 75 58
-3.468262e+00 3.951997e+00 -1.181763e+01 143 85 86
6.592805e-01 2.841021e-01 -5.529286e+00 210 33 57
6.592805e-01 2.841021e-01 -5.529286e+00 210 33 57
-8.091147e-01 5.700715e-01 -4.580550e+00 161 183 219
2.140933e+00 1.126409e+00 -5.942612e+00 212 176 116
7.682310e-01 8.223188e-02 -5.713040e+00 238 231 239
9.119593e-01 6.377360e-01 -5.531625e+00 147 17 25
-3.203464e+00 3.787223e+00 -1.473399e+01 28 25 33
-3.009106e+00 4.081286e+00 -1.676302e+01 96 85 103
2.508733e+00 1.851272e+00 -5.220284e+00 173 157 104
1.922631e+00 -1.033162e+00 -6.770338e+00 203 178 60
9.038922e-01 -6.774149e-02 -5.610639e+00 51 9 18
2.757525e-01 1.355157e-01 -5.608800e+00 203 42 84
6.512801e-01 2.012785e-01 -5.669288e+00 115 4 13
-5.932893e-01 4.063486e-01 -4.614378e+00 212 160 173
-8.143791e-01 5.191065e-01 -4.575924e+00 188 226 254
-9.534654e-01 6.565389e-01 -4.585647e+00 243 231 243
2.724975e+00 -2.884526e+00 -9.900238e+00 59 47 61
2.042557e+00 -2.296946e+00 -1.178080e+01 104 96 105
1.822595e+00 -1.782260e+00 -1.234662e+01 75 54 61
-8.727920e-01 -1.667672e-01 -5.043723e+00 251 253 255
8.389317e-01 1.334871e-02 -5.683884e+00 222 196 212
-8.966447e-01 4.265536e-01 -4.593815e+00 165 217 253
1.074647e+00 6.133493e-01 -5.474714e+00 101 6 12
-1.025391e+00 7.202107e-01 -4.547033e+00 173 111 132
5.479648e-01 9.629294e-01 -5.594539e+00 153 14 28
-8.018560e-01 9.408817e-01 -4.614724e+00 157 123 142
9.817185e-01 1.616831e+00 -5.737502e+00 140 25 35
2.954287e+00 -3.190358e+00 -9.296207e+00 123 117 137
2.954287e+00 -3.190358e+00 -9.296207e+00 123 117 137
2.732292e+00 -3.316563e+00 -9.959051e+00 117 111 132
2.565648e+00 -2.620553e+00 -1.027309e+01 67 55 65
2.332119e+00 -2.382080e+00 -1.102588e+01 73 53 61
2.201007e+00 -7.159473e-01 -6.236138e+00 162 136 39
2.161460e+00 -6.825525e-01 -6.311005e+00 164 169 118
2.237948e+00 -4.830798e-01 -6.112508e+00 225 194 63
2.243152e+00 -4.843718e-01 -6.123384e+00 225 194 63
1.415796e+00 2.189491e-01 -5.551065e+00 75 11 12
-5.147930e-01 2.635097e-01 -4.594608e+00 226 174 184
-8.532574e-01 3.924769e-01 -4.628436e+00 245 237 249
2.500475e+00 -3.490757e+00 -1.052564e+01 51 47 63
2.988832e+00 -3.023582e+00 -9.219078e+00 104 99 117
2.928733e+00 -3.027259e+00 -9.377734e+00 115 100 121
2.790526e+00 -3.117688e+00 -9.734634e+00 32 30 45
2.646401e+00 -3.195474e+00 -1.022922e+01 115 109 126
2.362895e+00 -3.305149e+00 -1.096459e+01 113 109 127
2.411119e+00 -2.829605e+00 -1.078289e+01 116 108 123
2.528870e+00 -2.466096e+00 -1.031988e+01 112 104 121
2.065566e+00 -2.017409e+00 -1.165410e+01 107 90 101
2.065566e+00 -2.017409e+00 -1.165410e+01 107 90 101
2.514401e+00 -5.620387e-01 -5.410805e+00 208 105 132
2.514401e+00 -5.620387e-01 -5.410805e+00 208 105 132
2.523504e+00 -5.134060e-01 -5.401586e+00 209 98 134
2.538967e+00 -4.360194e-01 -5.391817e+00 208 95 122
2.265829e+00 -4.413734e-01 -6.072454e+00 167 135 16
2.551864e+00 -2.110706e-01 -5.343685e+00 216 81 99
2.551864e+00 -2.110706e-01 -5.343685e+00 216 81 99
2.287980e+00 -1.830805e-02 -6.015720e+00 167 136 16
2.287980e+00 -1.830805e-02 -6.015720e+00 167 136 16
9.053301e-01 3.500684e-02 -5.632283e+00 223 194 208
2.485370e+00 9.027530e-02 -5.490175e+00 184 158 92
1.948003e-01 6.717418e-01 -5.402386e+00 187 157 176
-7.303206e-01 9.185336e-01 -4.625489e+00 132 93 111
-2.475986e+00 3.169488e+00 -1.199920e+01 91 86 95
-2.475986e+00 3.169488e+00 -1.199920e+01 91 86 95
2.097947e+00 5.172928e-01 -6.332927e+00 149 88 70
-4.499992e-01 -2.884457e-01 -5.332100e+00 158 131 133
4.939349e-01 1.322127e+00 -5.757571e+00 18 7 6
1.888781e+00 -1.123582e+00 -6.765733e+00 217 201 91
-4.738395e-01 -1.389618e-01 -5.017294e+00 248 206 217
1.336155e+00 1.297754e-01 -5.459850e+00 131 25 22
-9.166757e-01 2.098640e-01 -4.634315e+00 223 160 169
2.391902e-01 8.274079e-01 -5.539861e+00 231 42 72
1.415417e+00 1.326704e+00 -5.282294e+00 201 144 155
1.146966e+00 6.856803e-02 -5.443482e+00 134 59 62
9.765521e-01 6.686057e-02 -5.530218e+00 74 10 10
7.870382e-01 -2.257772e+00 -1.227239e+01 150 127 126
-7.847034e-01 3.161950e-01 -4.612962e+00 217 151 166
1.920367e+00 -1.049402e+00 -6.765800e+00 234 210 88
2.217207e+00 -6.208694e-01 -6.154627e+00 243 216 79
2.249063e+00 -5.157901e-01 -6.070340e+00 189 157 34
2.249063e+00 -5.157901e-01 -6.070340e+00 189 157 34
1.222306e+00 -3.234898e-01 -5.332133e+00 195 133 135
-1.050665e+00 2.743449e-01 -4.691316e+00 233 171 185
-5.230283e-01 3.545710e-01 -4.599624e+00 187 125 131
-5.613660e-01 4.219367e-01 -4.608812e+00 149 90 108
-9.176513e-01 8.091938e-01 -4.561404e+00 185 119 134
2.335619e+00 -2.272111e+00 -1.093625e+01 153 149 170
2.150831e+00 -8.155161e-01 -6.293252e+00 240 219 94
2.135226e+00 -8.262621e-01 -6.349724e+00 185 193 135
2.138297e+00 -8.275797e-01 -6.357679e+00 185 193 135
2.224957e+00 -7.362302e-01 -6.168651e+00 197 169 49
2.564602e+00 -3.505145e-01 -5.343065e+00 254 215 233
-9.214834e-01 2.489078e-01 -4.662652e+00 255 216 221
2.631481e+00 -3.039310e+00 -1.017890e+01 140 131 150
2.545724e+00 -2.671852e+00 -1.034410e+01 128 115 128
2.392266e+00 -2.793809e+00 -1.082672e+01 80 68 82
2.334973e+00 -2.785083e+00 -1.091198e+01 84 72 87
-1.235908e+00 -2.913127e+00 -1.318520e+01 85 46 56
2.207022e+00 -8.681221e-01 -6.207916e+00 200 173 44
2.167930e+00 -8.527146e-01 -6.273595e+00 196 170 45
1.968889e+00 -2.115672e+00 -1.191701e+01 74 49 49
2.239591e+00 -3.569278e-01 -6.115389e+00 206 172 32
-7.346808e-01 -1.985147e-01 -5.030524e+00 250 240 251
-9.635906e-01 -2.143993e-01 -5.052116e+00 155 201 235
-9.723872e-01 -1.671277e-01 -5.005315e+00 119 141 190
1.231311e+00 -9.001009e-02 -5.339259e+00 236 173 181
-4.884620e-01 -2.340398e-02 -4.767857e+00 255 209 215
8.969386e-01 1.438873e-01 -5.703340e+00 150 41 66
-7.087266e-01 3.925777e-01 -4.618824e+00 202 131 146
3.262968e-01 6.472239e-01 -5.381715e+00 153 104 124
3.412089e-01 6.720166e-01 -5.394156e+00 247 224 229
-1.095695e+00 8.215812e-01 -4.603990e+00 249 196 203
8.944625e-01 5.212150e-01 -5.482280e+00 215 196 204
1.921293e+00 -3.258566e+00 -1.225159e+01 53 44 53
2.581811e+00 -3.554364e+00 -1.035439e+01 111 107 131
2.321402e+00 -3.518977e+00 -1.103316e+01 56 46 58
4.773683e-01 1.104100e+00 -5.598963e+00 140 30 54
1.159360e-01 9.128073e-01 -5.579484e+00 238 44 79
1.651081e+00 2.954285e+00 -7.372800e+00 141 135 154
2.652509e-02 1.083916e+00 -5.676253e+00 103 1 3
-1.941652e+00 2.048777e+00 -1.175098e+01 121 100 115
-2.855062e+00 1.066979e+00 -1.262703e+01 116 95 104
1.304626e+00 1.058169e+00 -5.850184e+00 215 42 64
2.738785e-02 1.309189e+00 -5.790199e+00 181 26 39
2.535494e+00 -6.145947e-01 -5.366525e+00 255 65 99
1.092700e-01 5.811518e-01 -5.394712e+00 104 39 63
8.418908e-01 7.199397e-01 -5.581029e+00 234 44 79
4.043401e-01 8.928489e-01 -5.563355e+00 181 35 56
5.613685e-01 1.109360e+00 -5.603388e+00 188 28 41
5.954407e-01 1.708658e+00 -5.882261e+00 96 5 3
2.660241e+00 -3.397037e+00 -1.014712e+01 128 117 138
1.119119e+00 -2.954219e-01 -5.345616e+00 244 181 189
1.745831e-01 5.629078e-01 -5.400444e+00 150 99 104
1.526847e+00 1.292607e+00 -5.283462e+00 185 130 132
5.005287e-01 1.419536e+00 -5.842342e+00 179 29 36
-3.479939e-01 1.775543e+00 -9.644467e+00 6 6 4
6.423089e-01 1.696075e+00 -5.852545e+00 211 40 57
1.326523e+00 2.563166e+00 -8.045125e+00 19 14 17
1.667198e+00 -4.652839e+00 -1.305591e+01 92 88 103
2.103862e+00 -3.983479e+00 -1.170714e+01 117 113 129
2.056928e+00 -3.324684e+00 -1.181019e+01 74 62 78
2.056928e+00 -3.324684e+00 -1.181019e+01 74 62 78
2.220526e+00 -5.669543e-01 -6.154551e+00 246 219 83
-5.416998e-01 3.340413e-01 -4.593421e+00 247 197 208
4.475507e-01 8.825820e-01 -5.583474e+00 230 194 215
6.391668e-03 9.214785e-01 -5.614451e+00 150 9 13
-3.447977e-01 1.716144e+00 -9.669536e+00 72 59 60
-6.415084e-01 1.775182e+00 -1.024271e+01 14 12 15
1.630967e+00 2.460679e+00 -7.487061e+00 115 95 81
2.648509e+00 -3.440779e+00 -1.021714e+01 124 118 149
2.726755e+00 -3.303473e+00 -9.919489e+00 146 138 160
2.897701e+00 -3.090011e+00 -9.456881e+00 142 138 159
1.818187e+00 -4.312113e+00 -1.260245e+01 107 103 120
2.817052e+00 -3.112717e+00 -9.678742e+00 124 114 122
2.319625e+00 -3.273335e+00 -1.105655e+01 116 110 129
1.851556e+00 -3.209366e+00 -1.238868e+01 110 102 119
-9.428279e-01 3.160414e-01 -4.642229e+00 229 166 184
-5.625160e-01 4.514988e-01 -4.638491e+00 196 138 152
-7.123803e-01 7.001363e-01 -4.551834e+00 198 130 142
-9.883836e-01 7.381013e-01 -4.538747e+00 195 122 141
4.361641e-01 9.409116e-01 -5.578232e+00 234 150 171
5.682802e-01 1.089051e+00 -5.605402e+00 159 29 51
3.844064e-01 1.075864e+00 -5.589652e+00 243 209 229
4.277569e-01 1.090630e+00 -5.594524e+00 225 203 227
9.610726e-02 1.653012e+00 -5.902400e+00 127 2 0
2.548369e+00 -2.679478e-01 -5.316892e+00 227 157 174
2.559693e+00 -2.723080e-01 -5.333597e+00 227 157 174
2.591704e+00 4.776640e-03 -5.253340e+00 219 176 191
2.603814e+00 -4.397047e-01 -5.278443e+00 222 87 50
2.574766e+00 -3.221952e-01 -5.279069e+00 213 37 57
2.584304e+00 -2.397839e-01 -5.252549e+00 215 38 58
2.567857e+00 -1.848153e-01 -5.298963e+00 220 180 190
2.542135e+00 -3.988068e-02 -5.313836e+00 214 39 52
2.589875e+00 1.454715e-01 -5.180007e+00 220 188 205
2.547597e+00 -5.341836e-01 -5.349683e+00 214 37 60
-3.066227e+00 -5.310538e-01 -1.492654e+01 103 100 125
-7.428707e-01 6.917165e-01 -4.545109e+00 220 166 180
2.834651e+00 -3.024797e+00 -9.698432e+00 87 79 92
2.180352e+00 -1.008749e+00 -6.251280e+00 175 149 39
2.198210e+00 -6.466449e-01 -6.221752e+00 162 134 36
2.237054e+00 -5.238317e-01 -6.133930e+00 213 182 65
2.592164e+00 -3.235214e-01 -5.201254e+00 218 37 51
-3.081216e+00 -5.613653e-01 -1.509041e+01 105 101 122
2.190576e+00 5.576870e-01 -6.253090e+00 135 83 24
-2.285457e+00 4.267906e-01 -1.233689e+01 30 22 27
-2.285457e+00 4.267906e-01 -1.233689e+01 30 22 27
3.991108e-01 1.161848e+00 -5.599770e+00 205 168 181
3.991108e-01 1.161848e+00 -5.599770e+00 205 168 181
9.688592e-01 1.667851e+00 -5.714566e+00 144 21 29
2.746086e+00 -3.544274e+00 -9.907315e+00 56 54 64
2.137157e+00 -9.337954e-01 -6.338382e+00 202 176 70
2.216538e+00 -7.843934e-01 -6.177691e+00 159 131 35
2.216538e+00 -7.843934e-01 -6.177691e+00 159 131 35
2.254591e+00 -4.795599e-01 -6.074604e+00 172 142 32
2.578892e+00 -6.168489e-02 -5.226913e+00 221 186 200
2.581481e+00 -1.484521e-02 -5.206669e+00 228 178 201
2.556806e+00 1.411029e-02 -5.282244e+00 229 167 175
2.556806e+00 1.411029e-02 -5.282244e+00 229 167 175
2.591931e+00 1.795176e-01 -5.158978e+00 208 42 65
2.608529e+00 2.775061e-01 -5.138669e+00 190 71 99
2.608529e+00 2.775061e-01 -5.138669e+00 190 71 99
-2.804339e+00 8.422964e-02 -1.326151e+01 34 25 28
-2.009458e+00 5.355679e-01 -1.191520e+01 41 29 37
-1.913822e+00 5.938385e-01 -1.176505e+01 39 29 37
-1.913822e+00 5.938385e-01 -1.176505e+01 39 29 37
-7.915297e-01 4.688838e-01 -4.593602e+00 166 140 175
-1.126685e+00 6.560805e-01 -4.568245e+00 177 111 130
3.466884e-01 9.377915e-01 -5.563855e+00 147 25 40
3.753130e-01 9.520095e-01 -5.568981e+00 183 112 129
5.527294e-01 1.034714e+00 -5.596021e+00 132 8 22
2.824861e+00 -2.941439e+00 -9.600509e+00 41 31 41
2.177623e+00 -9.155956e-01 -6.272565e+00 205 177 65
2.558510e+00 -2.890943e-01 -5.302122e+00 234 185 202
2.551560e+00 -1.927334e-01 -5.310289e+00 230 183 190
2.599662e+00 -4.012158e-02 -5.199324e+00 206 52 79
2.577146e+00 -3.438080e-02 -5.244486e+00 190 82 110
2.602990e+00 1.535763e-01 -5.149428e+00 233 168 187
2.607067e+00 1.985629e-01 -5.133296e+00 250 156 168
2.607067e+00 1.985629e-01 -5.133296e+00 250 156 168
2.586171e+00 5.809823e-02 -5.215964e+00 231 165 179
2.586171e+00 5.809823e-02 -5.215964e+00 231 165 179
2.571634e+00 -1.818736e-01 -5.303013e+00 220 180 190
2.601833e+00 -3.074806e-03 -5.182062e+00 207 46 66
2.197714e+00 -6.470795e-01 -6.220973e+00 162 134 36
2.561563e+00 -1.012607e-01 -5.303387e+00 228 185 199
2.417434e+00 -5.696288e-01 -5.705731e+00 164 134 16
2.248500e+00 -5.532142e-01 -6.098725e+00 154 125 23
2.244544e+00 -2.319167e-01 -6.062796e+00 164 134 26
2.348320e+00 -4.666289e-01 -5.229198e+00 206 64 74
2.449576e+00 -2.509490e-01 -5.600125e+00 175 143 24
2.575491e+00 -8.779993e-02 -5.267282e+00 194 79 112
2.578250e+00 -3.351641e-02 -5.245623e+00 190 82 110
2.566233e+00 3.289922e-02 -5.255612e+00 199 76 92
2.561429e+00 2.258279e-01 -5.203564e+00 255 60 95
2.662754e+00 3.932454e-01 -4.963369e+00 250 146 73
2.627919e+00 2.205639e-01 -5.091702e+00 255 63 106
2.609587e+00 1.401470e-01 -5.110381e+00 255 65 107
2.684693e+00 4.416663e-01 -4.915094e+00 230 113 53
2.475612e+00 1.269257e+00 -4.739191e+00 251 203 98
2.610508e+00 2.903921e-01 -5.101672e+00 255 198 213
2.595898e+00 2.226621e-01 -5.144653e+00 247 71 110
1.683205e-02 4.090398e-02 9.141787e-03 0 255 0
1.682359e-02 4.059705e-02 -4.085727e-02 255 255 0
-6.220298e-01 7.240635e-01 3.505964e-01 255 0 0
-6.191424e-01 7.213841e-01 3.007518e-01 255 255 0
-1.218788e+00 2.210039e-01 -3.420996e-01 0 255 0
-1.207262e+00 2.192788e-01 -3.907223e-01 255 255 0
-1.253457e+00 2.230088e+00 -1.500116e-01 255 0 0
-1.240770e+00 2.219768e+00 -1.972615e-01 255 255 0
-1.514696e+00 -4.038021e+00 -2.342402e+00 0 255 0
-1.502242e+00 -4.000773e+00 -2.373345e+00 255 255 0
