# .PCD v0.7 - Point Cloud Data file format
VERSION 0.7
FIELDS x y z rgb
SIZE 4 4 4 4
TYPE F F F F
COUNT 1 1 1 1
WIDTH 1130
HEIGHT 1
VIEWPOINT 0 0 0 1 0 0 0
POINTS 1130
DATA ascii
35 -53.384575 -44.942947 0
35 3.7621155 -19.287796 0
35 17.389694 -11.272705 1.2632633e-38
35 67.110565 113.00856 1.2358884e-38
35 43.891571 79.667908 0
35 45.869751 -13.653931 0
35 29.093102 3.6923676 0
35 2.1488876 -28.639359 0
35 17.043495 79.367493 0
35 -36.577629 -123.00491 0
35 -52.010941 -67.216888 1.4651905e-38
35 38.540756 8.9421387 0
35 -12.986046 7.2184296 0
35 16.272141 79.393394 0
35 -56.966305 -62.173706 0
35 61.653687 33.819962 0
35 67.450073 118.3704 0
35 -38.005604 -93.394623 0
35 7.4326782 -7.4587555 0
35 -78.067093 -57.877029 0
35 7.4265518 8.9820709 0
35 34.028183 -27.25856 1.3274013e-38
35 -20.589859 -3.7836151 1.207726e-38
35 1.1689606 75.462639 0
35 -51.690941 -53.828766 1.2354933e-38
35 13.988121 2.7460938 0
35 -19.732605 -128.25763 0
35 27.608086 17.312958 0
35 -15.786934 -9.2616272 0
35 28.67234 70.094002 0
35 -3.6556015 -2.4326477 1.2538218e-38
35 -65.795616 -66.382187 1.2907755e-38
35 -22.031319 65.502228 0
35 15.017395 -22.917221 0
35 20.831146 1.4493561 0
35 5.3097992 -72.65448 1.3179184e-38
35 -42.294586 -86.513672 1.2903432e-38
35 70.683701 14.257812 0
35 66.748383 28.01545 0
35 -64.451637 -64.860092 1.3091426e-38
35 0.30742645 59.079681 0
35 7.581871 -128.47025 1.3177756e-38
35 50.358902 21.489174 1.2446773e-38
35 8.8358841 -2.161087 0
35 3.6208496 -91.952255 0
35 0.64086151 57.973701 0
35 10.482574 64.962753 0
35 2.8336182 -7.1009827 0
35 -2.7066956 1.713501 1.2717166e-38
35 5.4755096 -114.72775 0
35 32.613693 10.7547 1.2630436e-38
35 18.908546 -53.485931 0
35 -16.536774 74.782074 1.2811119e-38
35 67.218536 37.893501 0
35 -37.197685 1.1261139 1.2904845e-38
35 -9.4482422 -12.975525 0
35 16.363129 -52.2258 0
35 36.620117 -20.236862 0
35 -31.864075 -11.167419 0
35 -16.376442 76.231216 1.2351214e-38
35 25.620323 -0.31919861 0
35 19.297943 21.51107 1.3080175e-38
35 -48.555702 111.02249 0
35 -3.0511322 66.440674 0
35 -39.441193 60.90155 1.2901168e-38
35 -60.05888 -91.057816 0
35 -62.337643 -33.440445 0
35 -23.928917 -17.192017 0
35 -9.3428726 -20.354752 0
35 36.723892 -133.72031 1.2718594e-38
35 6.8316345 83.533211 1.2904039e-38
35 -69.581619 -92.89006 1.2349524e-38
35 -3.6942062 11.73114 1.3542923e-38
35 41.56749 15.703918 1.1985418e-38
35 -22.594574 -57.516144 1.2072219e-38
35 38.960968 25.209503 1.317272e-38
35 -63.905949 18.06311 0
35 26.19799 55.94091 0
35 -24.351097 7.7084198 1.2991907e-38
35 78.147064 24.106949 1.2166887e-38
35 -20.827621 9.7715759 1.3172717e-38
35 31.858818 26.433136 1.3173073e-38
35 30.172417 26.149483 1.3448228e-38
35 -28.216721 -32.436111 0
35 -1.8474808 -102.1315 1.3271027e-38
35 -50.617714 -120.41373 0
35 12.84713 -76.318497 1.3362135e-38
35 -0.81739807 -101.55263 1.3271029e-38
35 -12.150398 -57.219101 0
35 -67.916962 -72.328995 1.2353144e-38
35 -11.398628 -18.62645 0
35 -70.975113 -8.8017426 0
35 -71.64325 -11.053497 0
35 -21.6577 3.3199768 1.2899715e-38
35 44.670822 -20.593567 0
35 73.494263 107.25121 0
35 -67.87645 17.543762 0
35 -53.472874 22.481644 0
35 -38.064224 19.662369 0
35 49.515732 -22.655365 1.2808992e-38
35 31.907875 -33.208405 1.2713904e-38
35 -19.291023 59.919312 0
35 41.735168 67.628151 0
35 17.539192 15.265686 1.3081226e-38
35 64.26442 58.573196 0
35 -66.799759 35.514885 1.1790183e-38
35 -49.103973 74.249771 0
35 -29.461349 -121.74457 0
35 29.374733 -9.3261719 1.189436e-38
35 73.790512 130.24492 0
35 15.495026 -82.796844 0
35 29.396637 -32.594528 1.2712106e-38
35 -13.764587 1.8567963 1.2437327e-38
35 -55.9151 126.39211 0
35 55.682114 -122.66522 1.3275457e-38
35 -66.55825 126.39483 0
35 66.278625 57.779892 0
35 37.037643 -15.927094 0
35 -20.083641 -37.027359 1.3823902e-38
35 23.8283 10.564011 1.2162194e-38
35 -58.459972 -72.410965 0
35 31.229034 -16.624023 0
35 70.935486 120.45126 0
35 46.567642 118.72096 0
35 16.137489 5.5595856 1.3087773e-38
35 55.997589 123.63853 0
35 28.108002 -18.863937 0
35 -57.591248 13.106262 0
35 47.240112 115.67075 1.2537077e-38
35 -10.750229 -74.564148 0
35 21.489471 11.243164 1.2438054e-38
35 44.132446 -102.64789 0
35 69.459946 91.4879 1.3180975e-38
35 56.031052 110.36853 0
35 -14.440384 19.328987 0
35 2.4839249 3.3426819 1.2441302e-38
35 70.895126 87.774796 1.3362496e-38
35 -60.819283 131.44272 0
35 -72.008293 -40.609695 0
35 22.692497 27.977409 0
35 -43.782677 -69.897476 0
35 35.162216 27.816368 1.3357461e-38
35 -81.829552 -49.233932 0
35 46.45607 -101.6631 0
35 -44.593056 126.59493 0
35 -76.564972 126.58451 0
35 66.387482 132.44754 0
35 -56.00433 -73.483673 0
35 -0.57821655 -45.369751 1.3822409e-38
35 8.5439377 -120.07202 0
35 -34.739166 16.389542 0
35 -23.011742 28.41349 0
35 47.179657 -3.7422638 1.2909946e-38
35 -55.321213 -118.04996 0
35 -49.789436 47.119431 0
35 44.876343 99.859985 1.3272822e-38
35 -27.3955 -69.585297 1.1797076e-38
35 0.40354156 -45.056824 1.3638018e-38
35 -58.945564 -85.304062 1.1793471e-38
35 -60.796818 -42.85025 1.2254817e-38
35 -39.679607 76.599236 1.3179536e-38
35 -76.909088 30.036926 0
35 -8.9703598 76.39608 0
35 59.816879 107.89723 0
35 -78.131172 -6.9586639 0
35 -27.162987 -114.07773 1.2163641e-38
35 -76.492859 61.011871 1.3730574e-38
35 66.125641 130.72424 0
35 -41.496414 -99.589554 0
35 -75.310043 51.210083 0
35 -5.794632 46.504913 0
35 9.121315 39.775719 0
35 -11.156937 -72.904846 0
35 -82.119652 13.66217 0
35 46.778458 -123.05414 1.2719715e-38
35 62.95578 89.053192 1.3362495e-38
35 -50.875858 -68.161743 1.5294758e-38
35 -11.602402 10.516418 0
35 -57.820431 19.636124 0
35 -34.609245 -55.511032 1.4191645e-38
35 46.084549 113.50889 1.308916e-38
35 -59.811382 -12.411026 1.3820955e-38
35 -48.331493 -67.780075 1.3724198e-38
35 -58.183926 -83.803482 1.2347363e-38
35 -52.212952 -95.042267 0
35 52.155746 53.848679 0
35 -29.78624 -91.336838 1.2256973e-38
35 -50.129761 -87.174072 0
35 22.159424 71.419426 1.2077993e-38
35 63.389984 -129.42438 1.2998126e-38
35 -85.010086 -8.539917 0
35 13.316139 33.673447 0
35 -62.0298 -105.96498 1.2164777e-38
35 -72.08876 -117.59491 0
35 -21.858109 -49.716354 0
35 -43.940327 -70.680389 0
35 -75.656143 -46.254471 0
35 59.875122 49.811165 0
35 -62.283108 -11.27475 1.308124e-38
35 7.5511322 26.091942 0
35 -7.4418869 130.92508 0
35 39.169617 -62.961243 1.3453239e-38
35 45.272766 59.45208 0
35 -15.320518 43.28434 0
35 -17.070847 41.827995 0
35 28.33744 91.652611 0
35 -41.948906 -44.889267 1.2711739e-38
35 14.147049 -133.2807 0
35 -45.11261 133.68579 0
35 48.886169 -64.503265 1.3271729e-38
35 -69.220383 -129.8775 0
35 27.821747 38.509583 0
35 76.441376 110.50168 0
35 3.7938232 0.055892944 0
35 -44.570564 -94.815643 0
35 -18.724548 -68.721481 1.1976783e-38
35 10.963074 35.775421 0
35 42.763214 41.501183 0
35 25.744308 -81.275742 0
35 25.825264 85.586952 1.2170536e-38
35 46.165756 61.155724 0
35 -78.643417 -22.846588 0
35 -51.453522 -36.39566 1.2709243e-38
35 -30.27697 -94.289368 1.1980389e-38
35 67.026932 103.54539 0
35 -4.9267578 -61.135651 1.3267073e-38
35 20.706314 -5.2569122 0
35 -81.792923 28.093636 0
35 1.885437 38.373062 0
35 4.2331848 42.062714 0
35 -3.0846405 130.9221 0
35 -65.255104 -25.769012 0
35 46.519989 -126.11124 1.2534954e-38
35 28.274582 125.36815 0
35 82.304688 16.596786 1.3824604e-38
35 69.537003 18.535866 0
35 -34.336117 -69.637985 1.2531041e-38
35 79.886765 -130.84399 1.2813001e-38
35 -38.852516 -37.610672 0
35 32.876877 119.73152 0
35 -38.733677 -102.25211 0
35 -45.879665 -61.194061 0
35 -25.327095 44.927132 0
35 53.803314 -17.812103 0
35 32.356445 -38.398254 1.2902966e-38
35 14.234482 -91.201843 0
35 40.661591 -8.7600708 0
35 -33.648937 -43.222824 1.4185469e-38
35 -24.777336 52.173347 0
35 12.865608 50.859619 0
35 -51.91576 -81.722717 1.2162972e-38
35 -12.787468 -92.757797 1.3363587e-38
35 19.072968 -66.911545 0
35 -41.28104 -112.15033 1.179419e-38
35 35.153564 -65.948868 1.3451829e-38
35 17.331757 -90.89502 0
35 53.073395 67.952065 0
35 -59.429012 120.77972 0
35 33.796448 -52.532959 1.3909581e-38
35 25.543434 33.339745 0
35 34.306213 -1.7022552 0
35 -57.669254 -86.054794 0
35 52.934113 89.457077 1.3178831e-38
35 -3.0018845 -11.584778 0
35 57.132217 2.2800903 0
35 -34.186195 -67.525986 1.2530686e-38
35 9.8605042 31.929588 0
35 52.067978 -17.195145 1.3087074e-38
35 46.716354 45.187782 0
35 34.411789 -54.652603 1.2896134e-38
35 39.293045 53.559288 0
35 -49.655067 103.60296 0
35 21.070084 112.48849 1.2355606e-38
35 -18.727386 83.825546 1.2904391e-38
35 -72.383728 -50.490952 0
35 -13.748703 -39.872162 1.2901193e-38
35 -37.214828 112.93927 1.2537777e-38
35 -32.034473 -36.568268 1.271321e-38
35 -4.4030151 31.953941 0
35 40.72641 -114.57355 0
35 10.718742 -44.71843 1.3729849e-38
35 18.583 125.56831 0
35 45.169815 -113.45694 0
35 33.058884 116.55627 1.1988672e-38
35 -51.51564 51.024536 0
35 -13.37944 -85.955292 1.3914615e-38
35 -43.050835 -112.4046 0
35 -68.643883 6.4291229 1.2527704e-38
35 8.1517563 -79.045685 1.3454695e-38
35 -62.964184 -100.21086 1.2531766e-38
35 -49.910446 7.2849426 1.3265996e-38
35 -72.315926 116.30265 0
35 28.956017 73.670364 0
35 41.879639 58.55307 0
35 2.3236694 126.49458 0
35 34.065536 -41.210419 1.4190473e-38
35 16.442177 8.1414642 1.2163628e-38
35 -47.960957 120.49503 0
35 21.215889 37.077156 0
35 -27.217857 -45.914658 0
35 -65.861397 -51.553009 0
35 -82.193779 -38.219772 0
35 -34.681644 6.5934143 1.2714256e-38
35 -75.791924 11.523956 1.2526658e-38
35 -44.766441 -20.285919 1.2351967e-38
35 -43.982506 -21.614456 1.2352324e-38
35 66.008728 103.25598 0
35 -42.087269 -24.269424 1.2720752e-38
35 32.210266 68.022057 0
35 -1.9026947 39.218819 0
35 -21.07148 -27.300552 0
35 84.817871 122.31152 0
35 32.026108 126.5423 0
35 -66.020134 -112.65384 0
35 -51.587894 -108.87939 1.197967e-38
35 81.194092 34.160622 1.2997356e-38
35 -25.179794 43.183022 0
35 18.045708 93.728973 1.2721118e-38
35 -40.752289 -25.535553 1.2536012e-38
35 65.562332 66.481293 0
35 -76.861877 12.930389 0
35 -66.407135 -110.44412 0
35 42.092026 -89.552185 0
35 -36.006527 -110.1223 1.234701e-38
35 -80.601585 -83.670822 1.2165133e-38
35 -6.9747009 -112.71387 1.3548332e-38
35 -13.051666 125.94388 0
35 52.048798 -115.05475 1.2168334e-38
35 -68.967171 120.45695 0
35 -74.46888 39.587044 0
35 16.801529 95.857307 1.2812925e-38
35 -27.047874 -96.677246 0
35 35.018204 -122.18332 0
35 -20.321762 -18.124634 0
35 15.820534 -69.707962 0
35 -53.912632 -128.33701 0
35 22.090485 48.366318 0
35 62.043457 43.289589 1.2443086e-38
35 39.876602 -1.9511261 0
35 -16.220947 -119.23898 0
35 23.954689 -53.462143 0
35 31.711166 -73.943375 0
35 59.597092 -113.7074 1.1983928e-38
35 -40.940933 113.69657 1.2169372e-38
35 23.22641 -92.505417 0
35 51.561401 3.078125 0
35 -38.441666 32.274933 0
35 -21.186562 -16.38652 0
35 37.809494 90.520203 1.2353427e-38
35 37.864334 121.9891 0
35 11.124931 -13.142288 0
35 -46.99868 -102.88921 0
35 -11.906303 25.550453 0
35 -50.991566 -9.8739929 1.2259421e-38
35 63.210068 17.218689 0
35 -81.169487 -113.42532 0
35 -47.273018 -111.08905 1.1886751e-38
35 -61.773949 49.001137 0
35 -58.552864 -131.05435 0
35 63.183167 -102.19499 1.3640161e-38
35 -53.227417 -6.0061035 1.2166139e-38
35 -61.772434 104.44981 0
35 -73.744209 -129.625 0
35 -32.591579 37.155067 0
35 -81.91346 106.19185 0
35 -71.06073 62.370865 1.3180274e-38
35 -56.95126 -23.730453 0
35 -72.539413 59.627296 1.3639826e-38
35 14.549072 -67.066132 0
35 44.742371 93.78949 1.3273526e-38
35 11.596222 122.53477 0
35 42.221588 24.96106 1.2714264e-38
35 -53.585274 -4.7588348 1.2165786e-38
35 59.689407 -9.8091888 1.3919745e-38
35 49.134171 -39.096863 1.2339005e-38
-20.207657 96 113.31394 0
13.82597 96 3.2515564 0
-15.395775 96 -104.8362 0
16.081699 96 53.117966 1.1802483e-38
16.310511 96 131.38742 0
19.918087 96 -54.936401 0
24.098282 96 -34.466873 0
15.286041 96 16.762589 0
23.572861 96 43.615669 0
0.8115921 96 42.819824 0
6.1114521 96 17.683075 0
14.497213 96 13.78334 0
6.1367111 96 47.463974 0
16.142839 96 -54.556229 0
5.9153786 96 20.297714 0
-0.12662506 96 40.910545 0
1.8063736 96 56.793243 1.2447497e-38
0.035736084 96 12.386078 0
4.3075676 96 3.1067963 0
-6.7911263 96 -103.69722 0
14.970993 96 63.445786 1.1803196e-38
19.661766 96 97.647209 0
15.086554 96 25.557816 0
13.359518 96 -104.23897 0
5.9650688 96 -111.58145 0
5.305336 96 -48.677719 0
17.708141 96 -80.916809 0
-5.0215797 96 17.465073 0
-3.5492096 96 -111.75638 0
-13.793354 96 -69.779495 0
20.491779 96 100.52274 0
-11.075859 96 2.9318695 0
19.560688 96 -76.779572 0
-1.9178658 96 -55.622086 0
-5.7939873 96 37.967232 0
3.5573559 96 24.779625 0
-8.5487061 96 -118.11758 0
15.82682 96 -92.322876 0
-3.3215485 96 -69.651306 0
6.9342155 96 36.683098 0
-0.81939697 96 26.219048 0
-19.256794 96 -74.990051 0
13.500175 96 23.83918 0
9.2862053 96 -95.43544 0
23.17366 96 -27.997711 0
3.2730637 96 -103.49854 0
-20.568985 96 -27.710114 0
15.401978 96 29.979362 0
21.188868 96 -21.696991 0
20.809734 96 -72.896332 0
-4.3737411 96 -98.498123 0
-19.62553 96 13.568695 0
-19.211098 96 -122.89963 0
-9.2373962 96 118.58427 0
-1.5392532 96 -98.576233 0
-5.7738609 96 20.176224 0
1.1842117 96 -47.32222 0
-3.8531799 96 -60.856567 0
-11.734692 96 -49.06073 0
-0.30260468 96 30.764946 0
-10.711792 96 -110.43076 0
21.162846 96 -14.415543 0
8.3334332 96 -108.56595 0
-7.829895 96 -95.664551 0
3.4787769 96 30.129196 0
-16.819931 96 35.693855 0
4.3321552 96 110.05008 0
-5.0492249 96 7.5147247 0
8.7501297 96 90.47168 0
0.11914825 96 120.53863 0
-8.4929466 96 81.368095 0
-14.33065 96 -66.922638 0
-14.985897 96 -125.55136 0
0.37322998 96 24.157684 0
-3.2780571 96 -93.107071 0
11.431377 96 58.170395 0
-7.6976585 96 -94.916992 0
-7.4441681 96 79.550934 0
-7.4500656 96 -49.344284 0
-0.88306427 96 -89.15329 0
20.963886 96 -11.135056 1.1793015e-38
-8.647831 96 -49.50769 0
1.0837555 96 -37.373871 0
-17.078648 96 26.011955 0
-3.7706032 96 61.388008 0
-8.0879173 96 -41.101196 0
5.6310978 96 34.048073 0
0.75893784 96 129.21484 0
3.8920307 96 -60.398438 0
-2.7064552 96 100.47272 0
-4.7723198 96 29.687134 0
-13.798168 96 -89.193176 0
-18.033298 96 -27.102112 0
-4.9658127 96 102.73112 0
9.1611633 96 122.75771 0
-10.845829 96 108.38613 0
10.113825 96 -78.531433 0
-3.6064911 96 -77.976837 0
-0.52687454 96 69.207565 0
-5.1920471 96 90.688026 0
3.6439819 96 -42.52771 0
11.68622 96 94.315331 0
-8.0907593 96 -75.000732 0
-3.3673286 96 -41.030716 0
-3.4457932 96 -39.945419 0
1.6126595 96 82.755089 0
15.006371 96 -14.53009 0
8.4960175 96 87.771835 0
1.6813583 96 -97.919983 0
10.226681 96 -46.148361 0
11.102495 96 -66.076233 0
15.942631 96 -63.570068 0
18.263287 96 125.49754 0
11.866528 96 105.44672 0
-14.484272 96 16.34642 0
2.5247955 96 -91.175949 0
-5.55653 96 87.465225 0
-35 52.60762 -16.647903 1.2536813e-38
-35 -32.208069 -121.50815 1.2355659e-38
-35 -25.291817 -112.91879 0
-35 -23.320671 -100.36041 0
-35 -63.026672 -7.2175903 0
-35 -38.803589 -110.3349 0
-35 -78.990005 -102.97174 0
-35 -40.212128 -123.21649 0
-35 -21.486519 -100.51382 0
-35 -16.426758 -112.98093 1.2722997e-38
-35 -76.130203 62.625061 1.319012e-38
-35 -80.984283 -89.964783 1.4382167e-38
-35 -76.318359 -103.41179 0
-35 -43.866302 44.702934 0
-35 -70.343689 -91.749496 0
-35 -48.080475 -95.982925 0
-35 -62.997116 35.205505 0
-35 47.69923 -74.125061 1.4008943e-38
-35 23.484444 68.570045 1.1994816e-38
-35 31.305458 -78.465073 0
-35 15.915649 68.559174 0
-35 72.918602 -92.760513 1.2158595e-38
-35 31.611618 -74.989395 0
-35 29.413139 82.347488 1.1900098e-38
-35 -50.994064 49.364571 0
-35 -44.052307 -89.49733 1.3459505e-38
-35 62.058868 -51.003082 0
-35 26.53157 -87.766937 0
-35 -69.946564 78.298187 0
-35 -53.579941 61.846436 1.3096118e-38
-35 39.693203 -16.978394 1.3087826e-38
-35 -11.038399 -97.743393 1.3642776e-38
-35 -64.954025 -40.146561 0
-35 5.2099457 64.698502 1.2541491e-38
-35 -43.904678 -115.17755 1.2999235e-38
-35 61.989105 71.50576 1.2448939e-38
-35 -47.990463 -108.66821 0
-35 52.099697 25.683273 0
-35 -42.810059 -103.11302 1.3827186e-38
-35 11.402428 -68.938675 0
-35 -44.686401 -122.80432 0
-35 -35.655289 -110.86856 0
-35 11.240646 -71.539917 0
-35 -47.209717 -36.027603 0
-35 -70.877914 -109.94023 1.4379281e-38
-35 20.30175 -34.292847 0
-35 -34.929337 -85.174881 1.2631551e-38
-35 -38.732666 50.921562 0
-35 62.188026 -19.691116 0
-35 30.866081 -9.7727966 0
-35 13.578186 33.273338 0
-35 -38.127853 -35.8479 1.2446421e-38
-35 -3.0852051 -107.43584 1.3634778e-38
-35 42.903431 -79.126511 1.3917492e-38
-35 -56.394669 -82.276611 0
-35 41.092049 -80.22406 1.364055e-38
-35 70.516068 -26.665253 1.4005444e-38
-35 -54.973465 122.59998 1.2536071e-38
-35 31.921768 -10.958664 0
-35 42.768745 14.980804 1.2066809e-38
-35 -60.436996 -93.485397 0
-35 -65.214417 -119.06949 0
-35 -54.799026 -107.30739 0
-35 -24.508789 -88.890076 1.2999947e-38
-35 12.636681 -103.39642 0
-35 -0.24432373 80.406456 0
-35 10.902908 -74.617004 0
-35 71.865784 -14.317719 1.24475e-38
-35 -68.501038 -91.138611 0
-35 -61.388733 -128.04544 1.32751e-38
-35 -61.09845 -21.557037 1.3276536e-38
-35 53.693092 -77.304321 1.4284085e-38
-35 13.382111 82.688591 1.2450748e-38
-35 -2.6188583 84.475662 0
-35 1.056427 76.985657 0
-35 -64.24408 27.864578 1.2535706e-38
-35 -67.31723 122.71504 0
-35 -79.03566 -14.019775 0
-35 77.182144 -76.43045 0
-35 13.311012 79.192902 1.2543663e-38
-35 74.824554 -75.2948 0
-35 -29.978027 -111.39011 0
-35 69.725601 -16.380142 1.217019e-38
-35 45.802414 -22.614334 0
-35 18.251961 -53.910797 0
-35 -32.005127 82.012207 0
-35 9.740799 -15.908844 0
-35 -73.986557 -117.44009 0
-35 -44.996414 -130.2533 1.2814491e-38
-35 -39.001984 72.494797 0
-35 -69.87236 59.939857 0
-35 -80.999329 -30.103912 0
-35 73.583954 -76.22937 0
-35 -69.266388 -117.45465 0
-35 68.277725 -2.6182404 0
-35 -58.725143 -80.703537 0
-35 -71.937592 20.214409 1.4378548e-38
-35 9.1079636 73.732063 1.2727691e-38
-35 21.04673 -6.2980652 0
-35 8.3098755 38.136711 0
-35 -58.91127 18.298828 1.2623245e-38
-35 -65.944824 -104.39165 1.2717954e-38
-35 -74.569672 -83.98761 1.2999598e-38
-35 -48.665894 8.6988373 1.2175608e-38
-35 -30.563377 67.911125 0
-35 20.702065 -8.493515 0
-35 -32.196777 -111.72592 0
-35 -83.123123 -8.4016418 0
-35 66.244926 90.539124 0
-35 12.625252 56.918083 0
-35 -63.04068 130.81422 0
-35 62.933132 15.396469 1.2251201e-38
-35 -29.780579 -26.626007 0
-35 -77.037537 -36.820389 0
-35 -83.933746 16.693924 0
-35 -74.361511 -77.678223 1.3644956e-38
-35 -17.75235 -26.076828 0
-35 35.668652 -70.65892 0
-35 24.98085 -28.512146 0
-35 35.626316 77.959068 0
-35 -79.795258 71.323036 0
-35 -11.785622 42.221992 0
-35 75.948578 -31.884781 0
-35 30.195763 57.455246 0
-35 -66.491257 -28.552582 0
-35 -48.829865 81.168983 0
-35 11.293571 -94.108307 0
-35 -12.82605 -99.483154 1.3458753e-38
-35 55.325047 -84.991302 0
-35 28.547539 -61.857468 1.4008592e-38
-35 -52.181793 -107.99149 0
-35 51.615025 -57.125931 0
-35 -12.699738 67.159897 1.1987238e-38
-35 -16.713699 -42.417511 1.24439e-38
-35 50.006248 64.81076 0
-35 8.2985535 -60.282654 1.2076186e-38
-35 -63.809341 128.86647 0
-35 21.903473 78.040833 0
-35 -61.257339 -106.94264 0
-35 38.506073 -2.3169708 0
-35 -83.238708 -45.693848 0
-35 21.478264 -1.5744324 0
-35 -80.926529 -123.27213 0
-35 35.106098 7.3700867 0
-35 -28.81395 -99.899643 0
-35 49.597881 16.324677 0
-35 50.553047 65.678925 0
-35 -58.078613 -107.55884 0
-35 23.423615 89.567764 0
-35 46.730858 -36.474518 0
-35 55.214912 55.614906 0
-35 41.658485 67.706322 0
-35 31.010803 72.192673 0
-35 -60.609207 -119.3429 1.1894726e-38
-35 -35.419983 78.989792 0
-35 45.870087 -10.892151 0
-35 -31.168678 15.670807 0
-35 48.191212 41.227974 0
-35 -29.281403 -104.8988 0
-35 -82.07782 35.981133 0
-35 -46.356201 -12.14064 0
-35 44.489811 -4.9946594 0
-35 -12.946609 -37.772842 0
-35 72.858765 -84.568619 0
-35 -48.266541 -43.223999 1.2998145e-38
-35 -33.856125 -21.119904 0
-35 -57.193481 9.1086731 0
-35 39.504276 -54.206696 1.4285195e-38
-35 -58.091614 -56.070633 1.2716108e-38
-35 18.935867 57.927811 0
-35 23.461678 -44.985016 1.3091791e-38
-35 73.6539 94.512619 0
-35 -42.691971 -6.0664215 0
-35 -49.258194 127.04418 0
-35 -73.898117 25.049164 0
-35 34.861942 4.0658264 0
-35 -35.183197 -76.856186 0
-35 -26.022652 -5.217041 1.1804659e-38
-35 -11.090729 -5.3964081 1.180285e-38
-35 -1.9089966 -36.738358 0
-35 -33.350006 -19.70015 0
-35 -71.992233 -31.191925 0
-35 -3.2691574 69.014435 1.3185784e-38
-35 -68.428558 -100.33888 1.4378918e-38
-35 55.010246 58.107986 0
-35 -48.219421 -11.798721 1.1893253e-38
-35 -81.04007 82.743546 0
-35 -41.003799 -19.574661 0
-35 -75.916275 32.193413 0
-35 4.9271393 20.007797 1.4105578e-38
-35 -63.59819 0.96421814 0
-35 -83.688034 5.4263153 0
-35 62.684044 56.974022 0
-35 74.215202 66.126328 0
-35 19.148544 -64.607422 0
-35 38.247726 76.511719 0
-35 25.720146 -61.031021 1.3642008e-38
-35 15.706413 -43.356064 1.2355668e-38
-35 -77.366348 134.07722 0
-35 -39.261215 -19.836868 0
-35 -19.645042 -36.170273 0
-35 78.182961 131.95764 0
-35 5.9389801 -59.054398 0
-35 46.935581 44.972183 0
-35 -61.230225 53.223259 0
-35 21.51017 44.354492 0
-35 73.405899 -104.5594 0
-35 -14.203415 -15.028595 0
-35 -76.999802 53.502075 0
-35 73.141479 61.363518 0
-35 -63.780441 -92.395096 0
-35 -60.759949 21.802963 0
-35 18.379448 1.1154785 0
-35 -44.836426 61.874268 0
-35 78.23703 -46.699585 0
-35 0.81876373 42.335342 0
-35 -0.5559845 -35.872269 0
-35 -0.68909454 -57.745453 0
-35 32.055767 -24.345139 1.3915778e-38
-35 -10.495911 -4.0247345 1.2263106e-38
-35 67.469254 -118.67996 0
-35 24.13472 51.7901 0
-35 82.48806 73.905029 1.2164693e-38
-35 77.093323 133.99722 0
-35 -13.51767 -122.48468 0
-35 -46.307999 -17.552078 1.217019e-38
-35 5.1620255 -63.317352 1.4007223e-38
-35 -40.018677 -58.500305 0
-35 5.4024658 -108.49046 0
-35 -0.38243866 -49.179962 1.1894329e-38
-35 85.320061 62.465668 1.4466686e-38
-35 -8.7212906 -23.018326 0
-35 52.07391 -47.811813 1.243849e-38
-35 -50.933685 -82.66391 1.3554585e-38
-35 0.94647217 -13.568604 0
-35 9.8118362 -50.112701 0
-35 21.106094 -65.813477 0
-35 -61.314362 -115.21091 1.3736814e-38
-35 77.585815 -106.35564 0
-35 -16.73539 -14.610916 0
-35 2.3506393 -57.630783 0
-35 -64.941498 10.67807 0
-35 -8.6297836 -16.886795 0
-35 -77.657333 -83.093445 1.2908476e-38
-35 -17.975243 -62.761459 0
-35 -55.957565 -93.924744 0
-35 -1.2601318 27.40287 0
-35 81.324898 -66.413925 1.2258754e-38
-35 -1.8697586 -12.316162 0
-35 -83.522034 -19.19165 0
-35 80.7966 -109.13867 0
-35 43.952942 7.3853149 0
-35 -50.283798 70.541405 0
-35 -76.849304 -123.4631 0
-35 57.612873 -3.9217682 0
-35 -40.041992 -28.234146 0
-35 80.398315 -105.83101 0
-35 56.49044 9.3838043 0
-35 -9.2102661 -15.954376 0
-35 -58.859711 84.498497 0
-35 -5.1038971 -22.989136 0
-35 -20.071053 86.304474 0
-35 2.0295334 7.6055145 0
-35 2.5541153 -50.542633 0
-35 -72.207581 -45.611938 0
-35 27.643394 -99.566513 0
-35 52.898132 16.486282 0
-35 -48.244339 -30.803467 1.2630434e-38
-35 59.578705 26.846321 0
-35 72.83815 113.53667 0
-35 -76.292877 -111.80701 0
-35 -78.717728 -2.7950745 0
-35 -14.725296 -34.34819 0
-35 83.118759 -67.908051 1.2534613e-38
-35 58.971107 -122.672 0
-35 -47.798843 -25.301239 0
-35 69.671867 -47.004318 1.2810099e-38
-35 -43.628738 75.160355 0
-35 -55.641052 -46.174622 0
-35 85.458336 -36.293808 0
-35 32.271248 -132.70694 0
-35 -60.953232 -123.02704 0
-35 41.81237 100.80999 0
-35 26.699455 60.687454 0
-35 32.126625 -131.8616 0
-35 60.501171 -89.482803 0
-35 54.301685 -40.325912 0
-35 85.063713 51.530319 1.3912443e-38
-35 28.111732 -95.857056 0
-35 -16.025314 76.698906 1.3553499e-38
-35 7.1083145 -41.158554 0
-35 42.136677 75.188988 0
-35 52.178932 -36.62616 0
-35 2.3895035 -5.664917 0
-35 -0.6815567 21.652519 0
-35 -69.848557 34.80629 0
-35 60.809319 -110.282 0
-35 48.011429 -90.279617 0
-35 59.21175 -120.07187 0
-35 -39.947281 -94.436172 0
-35 60.420631 -93.722366 0
-35 37.668602 89.245193 0
-35 -75.35318 -52.318741 1.2623552e-38
-35 -78.692688 -116.21811 0
-35 -51.743622 -49.36409 0
-35 -44.855682 -57.295624 1.4006132e-38
-35 -57.411407 -94.445511 0
-35 -49.854126 21.23642 0
-35 -56.331512 79.97966 0
-35 -21.675774 -20.424469 0
-35 13.000343 -2.2882233 0
-35 58.359451 -111.43646 0
-35 64.297844 127.63844 0
-35 -52.374405 -80.694077 1.3092165e-38
-35 85.004906 -9.533844 1.3357475e-38
-35 -22.481544 67.634865 0
-35 77.529472 -59.490891 1.2901946e-38
-35 16.043564 16.078033 1.3637749e-38
-35 -41.163895 40.483658 0
-35 67.483803 42.844727 0
-35 -53.612595 1.859024 0
-35 -48.099503 93.53479 0
-35 71.326805 53.50219 0
-35 63.108681 5.3305817 0
-35 -80.378159 -62.2948 0
-35 23.854233 18.280388 0
-35 0.95933533 -114.87317 0
-35 63.836533 -28.937744 0
-35 -40.389938 59.224197 0
-35 -5.2941589 96.802773 1.1791597e-38
-35 -50.44429 -74.414688 0
-35 73.555771 122.66025 0
-35 31.349663 -28.777222 0
-35 61.676834 4.739212 0
-35 -6.7204437 18.051811 0
-35 -27.684395 8.0619202 0
-35 77.607849 55.258011 0
-35 59.709503 6.4309235 0
-35 76.89537 51.224678 0
-35 75.001503 103.64982 0
-35 75.619057 106.34602 0
-35 -71.011841 -1.6855927 0
-35 -38.306641 96.763763 0
-35 -28.226486 -70.280304 0
-35 -47.024918 84.452019 0
-35 27.415382 33.468918 0
-35 -34.798004 -48.897308 0
-35 56.282028 43.092155 0
-35 -49.790649 96.448563 0
-35 -31.892899 -69.880814 0
-35 -47.767273 95.512787 1.1793736e-38
-35 -24.703346 87.551254 0
-35 78.906326 -126.51379 0
-35 -39.826385 -46.511261 0
-35 -56.549011 -99.848648 1.2443176e-38
-35 -31.801514 90.990585 0
-35 -75.245285 -8.2926483 0
-35 22.949448 13.533127 0
-35 74.881027 1.2626038 0
-35 -56.06105 1.8786011 0
-35 -35.210327 57.695358 0
-35 -31.70475 89.791008 0
-35 -42.618881 52.902893 0
-35 82.989479 55.679398 1.3358194e-38
-35 43.99361 24.127602 0
-35 3.8742371 27.178429 0
-35 -47.831329 -67.395325 0
-35 -26.583504 97.375839 1.1884139e-38
-35 43.952866 -92.76857 0
-35 -7.3709412 -70.777023 0
-35 15.715805 -120.43347 0
-35 81.825409 -89.498566 0
-35 58.108986 -106.82088 0
-35 -41.185944 -68.455109 0
-35 -24.319992 95.142105 0
-35 -10.873634 -73.570328 0
-35 -3.5649414 25.285568 0
-35 58.256718 102.90729 0
-35 33.386574 -42.629272 0
-35 31.131424 -122.35248 0
-35 -19.045074 126.43336 0
-35 -69.958038 89.029297 0
-35 -22.838875 38.754311 0
-35 9.37117 98.339249 0
-35 -6.5951843 78.427139 0
-35 -73.038162 110.83728 0
-35 -26.090607 129.5663 0
-35 -14.651436 77.710518 0
-35 -5.5228958 -0.10572815 1.262829e-38
-35 -68.363007 -48.207825 0
-35 -38.007736 94.052505 0
-35 69.60215 119.87133 1.3640245e-38
-35 -45.152802 -6.6155396 0
-35 35.191387 127.99954 0
-35 54.770039 34.628319 0
-35 20.058159 98.945236 0
-35 -31.236488 76.685966 0
-35 57.496582 -44.736725 0
-35 36.962597 -43.342163 1.179419e-38
-35 3.7571716 126.42321 0
-35 -9.0649643 -40.6091 0
-35 -34.748337 76.36779 0
-35 69.716858 55.826324 1.1795629e-38
-35 -61.283951 92.458275 0
-35 -14.446625 3.8541718 0
-35 -49.798553 74.791832 0
-35 -70.981705 -63.619461 0
-35 -44.752625 -71.30481 0
-35 84.987701 10.296021 1.215714e-38
-35 -44.308624 -37.099976 0
-35 -54.659897 99.056389 0
-35 -60.034424 118.18174 0
-35 32.327564 5.9263 0
-35 -43.128571 -75.122223 0
-35 -23.151451 -54.663696 0
-35 19.998215 102.53029 1.2159651e-38
-35 -57.873474 95.101265 0
-35 -37.220947 35.49231 0
-35 33.302307 13.627304 0
-35 85.060371 39.747223 1.1882362e-38
-35 7.3959503 100.3835 0
-35 52.232105 113.09978 0
-35 9.453476 101.46483 0
-35 -36.464722 -61.438187 0
-35 -51.777237 -66.737457 0
-35 -0.20327759 36.667282 0
-35 48.723549 127.37923 0
-35 17.386185 -72.362274 1.4010146e-38
-35 30.874161 95.067932 0
-35 50.795181 -126.39767 0
-35 -35.793243 -101.28845 0
-35 -58.366196 92.631683 0
-35 -39.890594 -87.488525 0
-35 32.141521 84.667358 0
-35 -3.0889969 -20.734818 0
-35 18.711105 -109.48285 0
-35 55.329437 1.6330872 0
-35 -61.400543 -65.717056 0
-35 5.176506 101.35231 0
-35 64.05265 -96.209717 0
-35 49.518696 -66.72406 1.410041e-38
-35 -22.159782 97.709282 1.1976335e-38
-35 38.875656 36.597641 0
-35 61.381126 -59.533936 0
-35 -66.824509 -64.358231 0
-35 -42.504333 -50.271164 0
-35 -5.9903107 -26.079987 0
-35 33.576431 130.05862 0
-35 45.117245 -35.149658 0
-35 -38.184799 33.679642 0
-35 -51.195084 98.730118 0
-35 -9.2847061 130.35785 0
-35 42.971783 -69.518692 1.4009685e-38
-35 47.285027 127.19949 0
-35 52.566204 48.117805 0
-35 -23.564316 -71.256058 0
-35 13.591721 98.903748 0
-35 -6.8923416 86.026733 0
-35 -41.13591 119.68604 1.272189e-38
-35 -36.217224 -43.323227 0
-35 37.183701 35.668747 0
-35 31.99646 -58.194885 1.3916784e-38
-35 28.126686 -69.601593 1.1978194e-38
-35 6.0807877 -120.33969 0
-35 28.769798 127.55577 0
-35 30.458855 112.19237 0
-35 -28.783424 -45.713333 0
-35 -27.097969 24.418335 0
-35 -45.716507 1.3018799 0
-35 -7.6264801 81.222778 0
-35 78.004059 -68.580978 1.1797438e-38
-35 74.047791 25.412971 0
-35 -2.7388306 11.393188 1.2630448e-38
-35 -0.99610138 -130.33371 0
-35 45.109604 -126.53415 0
-35 80.773911 123.32482 0
-35 -25.615326 -50.464554 0
-35 -33.73558 94.706223 0
-35 -72.026367 -60.537415 0
-35 22.676445 103.63775 0
-35 -23.001648 -26.090424 0
-35 72.385056 28.737595 0
-35 1.3607788 100.87604 0
-35 8.600174 -128.327 0
-35 -60.653244 -48.636551 0
-35 83.241959 -1.7743378 1.3634428e-38
-35 -30.365623 -47.542709 0
-35 -82.295517 89.812012 0
-35 -53.412643 -2.1686554 0
-35 -45.451187 -60.712708 1.3639497e-38
-35 -13.287323 -54.388397 0
-35 -21.359962 2.6189117 0
-35 -30.506477 102.7561 0
-35 -13.172676 -58.382019 0
-35 -4.5325012 54.852928 0
-35 -83.84697 51.774582 0
-35 -82.925507 59.093941 0
-35 83.725182 0.70726013 1.2989061e-38
-35 -64.67717 21.787422 0
-35 23.112717 99.417465 0
-35 -50.186691 -64.40184 0
-23.895733 -96 88.211456 0
4.0091743 -96 104.69038 0
6.0642395 -96 105.02032 0
20.383091 -96 98.546371 0
-1.8556519 -96 83.196762 0
-7.5488205 -96 -53.824509 0
-17.550175 -96 -50.619553 0
20.076542 -96 -105.59453 0
-7.5289059 -96 -58.245239 1.1892885e-38
-8.3891945 -96 -61.467926 1.2352424e-38
-18.788414 -96 85.885345 0
-8.1202965 -96 -50.429718 0
11.022411 -96 112.07369 0
8.8648186 -96 -106.06119 0
-20.218462 -96 104.41575 0
6.3267899 -96 -104.36589 0
1.6312218 -96 -27.942337 0
-14.689026 -96 20.970459 0
-5.2302341 -96 103.19402 0
-18.085783 -96 -56.500031 1.3088917e-38
-0.95928192 -96 -130.9476 0
13.927528 -96 88.706741 0
-12.258566 -96 -117.48978 0
11.468185 -96 127.52269 0
13.161118 -96 20.506096 0
19.767082 -96 88.912239 0
-15.735043 -96 77.239151 0
11.340675 -96 120.03297 0
5.0200958 -96 -122.60971 0
-6.8396702 -96 88.292046 0
11.589226 -96 88.738144 0
-15.213385 -96 -106.57198 0
-7.0196209 -96 58.324608 0
-18.03758 -96 77.214996 0
-1.274971 -96 93.471237 0
12.291119 -96 -37.106125 0
3.8038597 -96 117.57936 0
15.673302 -96 90.014862 0
-10.786631 -96 79.343803 0
-20.109016 -96 77.507339 0
11.27248 -96 20.583694 0
3.6697426 -96 94.004646 0
-13.201874 -96 -22.023056 0
-6.6916237 -96 85.076035 0
-19.405529 -96 -112.7067 0
-7.1947861 -96 -20.766266 0
4.6732597 -96 -18.868362 0
1.4717827 -96 -106.21434 0
-17.180288 -96 -22.049667 0
14.544136 -96 -19.020767 0
-21.757469 -96 -69.568893 0
9.5151749 -96 99.200302 0
-22.310364 -96 71.308281 0
-6.1119976 -96 -22.773148 0
11.070766 -96 124.07253 0
15.096809 -96 -112.09534 1.1798796e-38
-19.821262 -96 -71.272186 0
-16.864359 -96 -71.043762 0
21.789371 -96 62.490936 0
-20.600447 -96 -100.92302 0
11.536915 -96 -60.434372 0
-13.744747 -96 109.44437 0
-8.7651367 -96 -122.48038 0
-13.046932 -96 -71.550537 0
4.9215126 -96 20.517372 0
-11.927101 -96 -40.615219 0
-2.1653938 -96 -112.37219 0
-18.238142 -96 -89.562698 0
-2.2643585 -96 -68.594986 0
20.622723 -96 -42.592911 0
10.14959 -96 -43.45192 0
9.0622139 -96 -51.22496 0
3.7262192 -96 39.79747 0
-1.7172165 -96 -86.409348 0
10.525703 -96 -55.769226 0
-5.6953564 -96 11.983353 0
-4.251461 -96 -100.00475 0
-1.0077744 -96 67.463097 0
14.72094 -96 -67.318375 0
14.181332 -96 11.587738 0
-5.8938656 -96 -128.44055 0
12.821545 -96 1.4332733 0
-14.158535 -96 -89.548264 0
-1.5262184 -96 -89.441238 0
12.428913 -96 -68.851166 0
4.9658394 -96 -126.43219 0
-13.742973 -96 6.5153809 0
-2.513855 -96 67.36805 0
-7.7759209 -96 77.244133 0
1.5762405 -96 67.581886 0
14.798931 -96 76.53727 0
12.482498 -96 -130.7023 0
3.198494 -96 -2.1983185 0
5.5412216 -96 -89.672363 0
6.7849388 -96 -125.22961 1.1985065e-38
10.225918 -96 85.54837 0
22.41806 -96 81.283661 0
23.072716 -96 82.320045 0
10.872868 -96 67.890625 0
15.407169 -96 -125.19073 0
7.1515579 -96 -39.792068 0
-17.534204 -96 -80.763977 0
3.8682518 -96 -10.043106 0
-23.369846 -96 -80.4814 0
-4.594635 -96 -17.932236 0
6.3282127 -96 67.017433 0
16.650494 -96 -31.845276 0
-5.5774174 -96 -112.76035 1.1798799e-38
10.497772 -96 -21.908752 0
-1.2859344 -96 129.89226 0
10.111877 -96 -81.615936 0
-1.136631 -96 44.433197 0
-2.1964111 -96 -44.578659 0
-10.508087 -96 -101.578 0
-18.19208 -96 -95.32135 0
4.9971848 -96 -49.882919 0
5.6822052 -96 43.545952 0
12.784485 -96 -122.8364 0
11.707184 -96 -86.256607 0
17.729069 -96 -121.43832 1.2533826e-38
0.25550079 -96 20.594452 0
-10.644585 -96 84.802605 0
-4.0314426 -96 5.2262726 0
-9.366394 -96 -126.50964 0
-15.956011 -96 35.924583 0
-13.524515 -96 -119.74249 0
-11.816078 -96 127.75666 0
16.163105 -96 47.527847 0
-14.923935 -96 31.651749 0
11.801273 -96 -76.432739 0
6.3991585 -96 74.488167 0
-7.0910702 -96 36.473564 0
-3.9414215 -96 90.213806 0
-18.93626 -96 34.914085 0
-15.665171 -96 49.673187 0
12.394192 -96 -2.1750031 0
8.0223503 -96 -117.2413 0
