# .PCD v0.7 - Point Cloud Data file format
VERSION 0.7
FIELDS x y z rgb
SIZE 4 4 4 4
TYPE F F F F
COUNT 1 1 1 1
WIDTH 1351
HEIGHT 1
VIEWPOINT 0 0 0 1 0 0 0
POINTS 1351
DATA ascii
35 12.512749 -57.900116 1.3749709e-38
35 29.691261 -44.956787 2.0531867e-38
35 -23.595903 -68.959778 1.6407571e-38
35 4.5326271 -11.865822 2.1830481e-38
35 -1.0935478 8.0200882 2.2303317e-38
35 -21.262053 22.67083 2.3028306e-38
35 -5.9792957 14.443474 2.0540833e-38
35 -5.6579819 -39.499298 1.9793234e-38
35 17.090736 -53.696289 1.7408741e-38
35 -18.570705 -35.993332 1.9708575e-38
35 15.861973 21.846489 2.2664261e-38
35 1.4295731 29.783905 2.0472425e-38
35 -9.2136707 -22.678886 2.1642157e-38
35 -2.8034668 11.018944 2.1000016e-38
35 -7.8607273 -66.869247 2.0168886e-38
35 -2.5998955 -73.929825 1.9532523e-38
35 -7.5945759 -87.447983 1.8180912e-38
35 -16.113749 -24.625465 2.2196409e-38
35 11.171268 -75.889297 1.6424136e-38
35 -2.012291 83.934967 2.2033629e-38
35 -9.6511307 -8.3968048 2.0444331e-38
35 14.975277 23.297813 2.2203602e-38
35 18.495918 14.335068 1.860289e-38
35 31.724953 -23.37323 2.1641784e-38
35 1.6046295 30.360954 2.0931611e-38
35 -28.217915 -59.227905 1.9896198e-38
35 -7.5787144 -35.252411 2.0994995e-38
35 0.92308807 -87.167664 1.808836e-38
35 -11.967855 13.80838 2.2565195e-38
35 23.069241 -24.401733 1.9425876e-38
35 0.30931854 -45.123413 2.1461016e-38
35 -6.9513931 -22.570358 2.0714805e-38
35 14.237453 -61.444611 1.5407441e-38
35 31.703056 -42.206177 2.080844e-38
35 16.326057 -54.173309 1.5020647e-38
35 -4.5442371 55.992867 2.1389352e-38
35 18.081429 -24.5541 1.5769005e-38
35 -6.7448254 -9.9569244 2.2476571e-38
35 3.037487 10.321281 2.1095797e-38
35 -25.596294 -76.072006 1.8525208e-38
35 -6.640873 -6.7961502 2.1458832e-38
35 -9.7618141 -76.698166 2.1747027e-38
35 -15.369747 -22.873497 2.247729e-38
35 18.793888 -87.672729 1.8640452e-38
35 -17.400877 -91.805618 1.8270233e-38
35 25.575218 14.719551 2.349321e-38
35 -12.382622 -38.287018 2.0438955e-38
35 -4.0285664 -41.833496 1.9704267e-38
35 21.256863 17.54686 2.2019549e-38
35 -18.514627 27.068283 2.1387897e-38
35 -30.294886 -61.984283 1.9897644e-38
35 -22.91539 -8.0025406 2.0639491e-38
35 27.093864 -35.589508 1.8776916e-38
35 8.3561783 16.135941 2.2758179e-38
35 19.623482 -1.1866226 2.1463478e-38
35 27.422428 -14.077164 2.0362904e-38
35 15.732578 -90.04982 1.5325365e-38
35 -18.941093 -16.386543 2.1283767e-38
35 23.188042 -18.064522 2.0372636e-38
35 0.27481079 -77.478058 1.9918949e-38
35 22.88525 64.608696 2.1204605e-38
35 -3.1678467 25.882484 2.2207152e-38
35 0.61494827 -72.361786 1.9819905e-38
35 -7.4635105 83.73616 2.2216969e-38
35 -33.040619 -62.465225 2.0362548e-38
35 -5.7603722 -8.0239944 2.0722336e-38
35 -0.11548615 56.752651 2.1114216e-38
35 9.6040382 -25.235497 1.2815857e-38
35 -0.93718338 8.6380157 2.2304037e-38
35 17.917633 -66.971863 1.6783926e-38
35 17.988014 -46.854126 1.7031684e-38
35 -7.0118542 -46.225266 1.9521682e-38
35 28.12928 -69.728516 1.6417634e-38
35 0.51244354 14.810974 1.8699064e-38
35 32.755424 -31.004425 2.0716963e-38
35 15.658306 -66.389832 1.8443816e-38
35 11.93528 -75.100845 1.6610319e-38
35 -1.7673836 -52.182236 2.165118e-38
35 15.084213 0.85228729 2.2291071e-38
35 12.380119 -30.174965 0
35 -30.065388 -67.71579 1.9807267e-38
35 16.058666 -16.451263 2.1093636e-38
35 9.5138474 40.059906 2.0932699e-38
35 8.3467941 16.308258 2.294257e-38
35 9.3691254 -71.719345 1.7902126e-38
35 15.992783 15.798134 2.1287744e-38
11.421202 36 60.039726 0
16.206205 36 71.579239 0
8.2867527 36 72.424072 0
-14.733944 36 54.972065 0
16.410395 36 71.242058 0
-13.598042 36 71.90432 0
13.115639 36 62.335766 1.8810086e-38
11.273436 36 54.285862 0
10.027004 36 67.263687 1.8167233e-38
0.17835236 36 72.265137 0
-3.1435165 36 65.306808 1.6782512e-38
-2.3422775 36 61.076874 1.3835129e-38
8.1587811 36 63.989376 0
-8.6766014 36 71.541306 1.5126594e-38
11.350183 36 71.333466 1.8810792e-38
-6.5482597 36 65.320312 1.7705562e-38
14.318954 36 56.057365 0
-9.418251 36 61.137054 1.4388669e-38
5.4997196 36 65.56398 1.798141e-38
12.762024 36 65.283516 0
-5.046402 36 67.079239 0
2.2135124 36 58.043232 1.8163626e-38
15.818605 36 54.561199 1.9910306e-38
-4.5627441 36 90.354462 0
-12.704071 36 65.143784 1.4664548e-38
15.319981 36 65.231598 1.6504849e-38
-12.972446 36 67.950127 1.7523655e-38
-10.840984 36 57.539497 1.5861266e-38
-0.5163269 36 68.482666 1.7796289e-38
-4.2884941 36 57.54171 1.5031502e-38
14.259239 36 -62.312653 0
-5.6160965 36 53.715298 0
9.5081654 36 -50.703445 1.8714561e-38
16.423336 36 61.34753 0
-12.275131 36 67.019394 1.4112419e-38
-0.25217056 36 54.917595 1.733388e-38
-10.203293 36 67.436264 1.6137839e-38
13.886879 36 58.213913 1.678322e-38
2.480732 36 65.348236 1.8256544e-38
7.8142776 36 54.779148 1.8987995e-38
-7.3394127 36 54.831028 1.8073594e-38
8.7881641 36 -48.425919 0
17.100227 36 52.618752 0
-1.9702606 36 56.354996 0
5.279417 36 54.864468 1.981847e-38
-6.2130585 36 57.27269 0
13.404381 36 55.740124 0
4.0103664 36 53.387951 0
1.722641 36 61.910786 0
-13.568638 36 58.503288 1.4664183e-38
10.157608 36 -49.132553 0
0.86653137 36 65.918793 1.6228592e-38
6.4962292 36 -62.089615 0
17.14727 36 52.900692 0
8.916605 36 59.797123 1.7611543e-38
-4.2216835 36 -61.876846 0
1.1292801 36 53.467346 0
-7.1659508 36 68.399948 1.4479404e-38
13.90008 36 58.184849 1.678322e-38
-4.7330513 36 69.224533 1.807324e-38
-0.83620834 36 57.947788 1.493894e-38
-4.9163666 36 71.457306 1.2544389e-38
11.71035 36 -49.935303 0
-7.9728775 36 58.042191 1.3923345e-38
-8.2697258 36 66.742447 0
0.036464691 36 65.621483 1.8440931e-38
5.4617043 36 62.142136 1.5310611e-38
-6.6546402 36 70.250656 0
-1.9452515 36 71.033546 0
-4.7822647 36 69.684792 1.5952743e-38
-9.0253563 36 56.245724 0
11.054926 36 68.613045 1.2450374e-38
-3.9843597 36 -80.161835 0
6.5610714 36 -80.325043 0
7.2565536 36 87.931503 0
6.7072811 36 53.370926 0
-2.2363663 36 -50.806046 1.4084284e-38
5.1938419 36 70.427101 1.7335311e-38
14.326162 36 -80.107803 0
-1.8677864 36 66.83342 0
-1.4129257 36 53.438557 0
-1.1942101 36 -61.850128 0
7.1633244 36 62.570351 0
-1.0534401 36 -80.231354 0
-9.7658386 36 -53.524597 1.619328e-38
8.6604671 36 70.598312 0
16.569544 36 -91.107452 1.2089134e-38
-0.99564743 36 -62.379959 0
-8.471283 36 53.508251 0
-5.0744247 36 55.784424 1.6507359e-38
23.252697 36 -90.889069 1.3013974e-38
5.107502 36 71.001007 1.881116e-38
-10.881081 36 63.979458 0
16.685053 36 -91.178848 1.2089134e-38
-13.557724 36 -62.184723 1.2354198e-38
-6.684803 36 -90.65274 1.1811456e-38
-2.4885864 36 59.012291 0
7.3694096 36 86.996887 1.8418221e-38
9.2091904 36 70.154999 0
-6.9180069 36 -50.191574 0
4.0654526 36 75.80043 2.0190458e-38
-16.510975 36 -83.413406 0
-15.353302 36 -57.443756 1.4175418e-38
-5.4634361 36 62.233364 0
1.9114494 36 -91.170212 1.5959911e-38
3.7942791 36 -62.09375 0
-4.9433365 36 63.946163 0
-2.6721306 36 -60.640457 1.9083405e-38
-9.4813385 36 65.125412 1.5954926e-38
-16.44503 36 -82.80452 1.1802831e-38
1.2288246 36 63.821705 0
17.807653 36 -38.61644 1.429389e-38
-8.697979 36 69.547401 0
-13.359947 36 -79.616394 0
-10.270226 36 -90.914917 1.2546864e-38
-5.0648575 36 -83.557617 1.2540398e-38
-11.738071 36 59.476757 0
5.0928822 36 -57.155334 1.4088613e-38
7.4914379 36 -52.238678 0
4.2374249 36 63.915794 0
6.0833015 36 -57.282272 1.3166286e-38
6.3706894 36 73.482162 0
11.782627 36 -91.137848 1.2275683e-38
-4.8994331 36 88.500885 2.0534053e-38
3.7635441 36 -38.590836 1.6598431e-38
-3.2753296 36 68.407089 1.623184e-38
-11.463734 36 69.414192 0
-6.8764381 36 73.017822 0
23.643879 36 -82.807434 1.2914589e-38
9.0556145 36 -83.904419 1.2819514e-38
-20.531689 36 -90.969788 1.1808226e-38
6.1044216 36 -92.116974 1.2361051e-38
-15.648308 36 36.303661 1.4197377e-38
-1.5961571 36 63.69418 0
-5.8335114 36 -60.598999 1.8991563e-38
-11.870514 36 54.001793 0
-12.046486 36 -60.428589 1.9358899e-38
-11.74847 36 2.627037 1.5305531e-38
1.6058197 36 -61.064453 1.7060499e-38
-6.7117691 36 -60.995773 1.7055453e-38
11.808146 36 68.554184 0
26.43631 36 39.132393 1.5305514e-38
-9.3905716 36 59.14542 0
11.308002 36 75.525131 1.9824207e-38
11.502222 36 -91.439072 1.3013248e-38
13.499622 36 2.3694992 1.6321841e-38
3.7451096 36 75.629303 2.0099338e-38
-4.923027 36 67.023872 0
7.957859 36 -1.2195282 1.4754513e-38
26.272087 36 -26.182716 1.4732169e-38
-9.6669579 36 -79.457916 0
-13.321362 36 -84.37291 1.3831856e-38
25.330101 36 -27.414185 1.4182948e-38
-16.163155 36 -61.06514 1.6779588e-38
0.19316864 36 59.320465 0
-9.8327713 36 -62.217728 0
2.9476166 36 -92.439697 0
3.7626553 36 39.499012 1.5215845e-38
4.7013073 36 -39.484726 1.9359601e-38
-6.1312866 36 -1.2735977 1.4569405e-38
-0.64747238 36 49.107487 2.0376274e-38
-10.403534 36 -84.540314 1.3648543e-38
-25.183105 36 39.472961 1.4294968e-38
6.9637318 36 -91.277328 1.2916736e-38
3.9351673 36 -80.372086 0
5.022768 36 -60.653137 1.8902265e-38
24.84502 36 29.618813 1.5308041e-38
-24.635281 36 23.830513 1.4569405e-38
-4.6993027 36 77.4077 2.1291392e-38
26.067638 36 -19.118637 1.4738286e-38
-2.0156631 36 66.119072 0
-19.570511 36 36.233936 1.4383205e-38
3.351757 36 -49.704819 2.0091745e-38
-4.5171318 36 36.353439 1.4938539e-38
10.382925 36 6.0613937 1.4386809e-38
15.025826 36 -84.166443 1.4848903e-38
-22.949295 36 30.082359 1.4383927e-38
-9.2779655 36 -61.8228 0
-17.191853 36 -16.917336 1.4017641e-38
14.187551 36 -38.660599 1.3110103e-38
27.170334 36 -22.390823 2.1096887e-38
-14.177216 36 66.260757 0
-8.97855 36 -80.186783 0
0.94420242 36 -50.334503 2.0454766e-38
-7.9850922 36 63.888027 0
13.55372 36 -82.664215 1.8536012e-38
-3.5933075 36 -49.787918 0
12.405891 36 -39.629547 0
11.579693 36 60.264553 0
1.3873711 36 -15.920685 1.9638723e-38
15.983223 36 -82.060364 1.8536733e-38
26.846516 36 23.356239 1.5766144e-38
16.874357 36 -62.220169 0
-29.390648 36 36.166332 1.4199895e-38
1.917778 36 -50.423981 2.054912e-38
-4.2811203 36 87.09671 1.5926795e-38
-8.4103165 36 67.015533 0
-24.546238 36 23.818184 1.4569405e-38
-2.417614 36 -78.765762 1.5122238e-38
-9.5345764 36 -82.336578 1.8257244e-38
-4.927845 36 -48.079956 2.1186216e-38
-4.8790932 36 10.012512 1.475631e-38
7.4835987 36 30.09037 1.5490274e-38
-8.7113113 36 9.6191254 1.4386806e-38
0.13272095 36 2.8412399 1.4383935e-38
5.0327969 36 -81.931122 1.7799152e-38
0.34826279 36 -50.546432 2.07274e-38
-3.4293671 36 77.456375 2.1475783e-38
4.6655865 36 -37.560669 1.7435387e-38
7.175375 36 -15.638252 1.3281166e-38
-2.5763474 36 -64.46077 1.6778868e-38
10.456301 36 -38.68811 1.2374327e-38
-5.9931564 36 -13.817451 1.429426e-38
2.3586082 36 -60.733521 1.8902614e-38
-9.8918114 36 -63.062958 0
19.944048 36 20.159653 1.5951617e-38
-4.1217728 36 -56.963242 1.3250221e-38
-13.175125 36 23.823517 1.4661953e-38
-13.509937 36 39.484756 1.4845269e-38
-0.61872864 36 -13.825615 1.4202065e-38
-1.0095177 36 20.535606 1.4204579e-38
3.7090797 36 -57.2005 1.2520935e-38
6.9612141 36 -37.727402 0
18.047506 36 9.7979431 1.6596983e-38
-7.1260872 36 59.542988 0
-0.60378647 36 -57.035553 1.3344575e-38
25.306501 36 35.726894 1.594981e-38
8.144268 36 77.389519 2.0741469e-38
25.936306 36 23.19635 1.6134926e-38
-8.0069275 36 -60.511337 1.917559e-38
6.0412426 36 9.5218201 1.5032181e-38
-10.185036 36 -64.398941 0
-15.919003 36 -35.012848 1.2258723e-38
16.414536 36 20.352905 1.5949454e-38
18.240921 36 -84.892746 1.4296805e-38
17.040203 36 23.405083 1.4940697e-38
-4.139782 36 -38.178482 1.7798763e-38
-2.5636711 36 -1.624649 1.5031099e-38
-12.4333 36 -64.520248 1.475165e-38
27.093376 36 -25.410454 1.4270117e-38
-12.796303 36 -37.409729 1.6882219e-38
8.2892265 36 -44.315491 1.9713229e-38
5.7692394 36 -16.097145 0
-11.922977 36 -66.660217 1.3184316e-38
-8.9078293 36 -50.842804 1.4998337e-38
11.57996 36 29.884811 1.5950531e-38
-6.9290466 36 -61.881165 1.2170524e-38
-12.33379 36 -82.159042 1.7427484e-38
11.416853 36 -38.846786 0
-16.94669 36 23.741814 1.4661953e-38
10.161907 36 -61.442398 1.7334573e-38
-2.2770538 36 -48.256989 1.9627515e-38
-18.759262 36 -61.601654 1.4198479e-38
-6.7219734 36 -80.148895 0
2.7620354 36 -90.015839 1.3654664e-38
-18.746338 36 -61.874588 1.4843848e-38
-2.4951706 36 30.055046 1.5400236e-38
3.5276527 36 68.565163 0
4.1661949 36 86.687126 1.9889033e-38
-8.4512024 36 -37.751984 1.6970445e-38
-1.4797096 36 89.451271 1.6484998e-38
15.359434 36 -39.894943 1.1987188e-38
0.25701904 36 39.329807 1.5492066e-38
-6.2832832 36 20.432007 1.4112735e-38
1.9518661 36 -39.395493 1.9816632e-38
-1.8070297 36 -84.686737 1.4386118e-38
-20.923332 36 24.199181 1.4571197e-38
5.0211372 36 36.095192 1.4112732e-38
2.9742851 36 9.5175934 1.5491715e-38
9.1051617 36 -60.277191 1.8717504e-38
-12.260223 36 36.406685 1.5120773e-38
-5.5095329 36 -81.333649 1.6873947e-38
17.627832 36 56.589954 0
20.102581 36 -62.124435 1.5030043e-38
0.5879631 36 -90.705933 0
-2.8129959 36 2.598175 1.4660525e-38
-22.659523 36 36.246666 1.4568315e-38
-1.0695534 36 -75.122223 0
3.3654041 36 -48.034515 1.815455e-38
2.473278 36 9.6271515 1.5676106e-38
20.934153 36 23.543739 1.5585707e-38
-20.907825 36 -17.024994 1.4934551e-38
7.4385204 36 -38.137589 0
4.3922672 36 36.164474 1.4296044e-38
27.872513 36 -25.769646 1.5560845e-38
14.838875 36 9.2775269 1.5766142e-38
-6.7134171 36 -81.995575 1.7888099e-38
-10.307964 36 -49.281525 1.2233912e-38
-12.782864 36 56.602505 0
2.6420174 36 69.716614 0
-0.66072083 36 88.328163 1.8232034e-38
22.122368 36 -92.816711 1.7708046e-38
1.118084 36 36.093147 1.5583186e-38
2.0393372 36 -37.525604 1.77091e-38
-19.052246 36 20.81002 1.5029656e-38
-16.400513 36 39.502537 1.5307323e-38
-8.0786476 36 70.775414 0
-0.43536758 36 -16.908936 1.5765049e-38
3.609211 36 2.5088501 1.5860497e-38
5.4119873 36 -46.247925 1.5380056e-38
1.1634865 36 23.80069 1.6229994e-38
18.517828 36 -35.447357 1.437562e-38
9.7578773 36 56.303738 0
4.5911655 36 23.72683 1.5309836e-38
-8.4145851 36 -39.254303 2.0186098e-38
15.930412 36 -60.746918 1.9086286e-38
-2.0483627 36 85.825752 2.1730075e-38
1.3816071 36 29.88044 1.5397721e-38
15.345968 36 9.1795807 1.5212968e-38
11.82736 36 -60.695923 2.0100442e-38
8.0717354 36 39.334896 1.4573713e-38
-13.504841 36 9.5587234 1.5307322e-38
18.085573 36 35.966042 1.5490634e-38
7.3385143 36 -40.216614 1.2162569e-38
18.784628 36 29.752518 1.6229999e-38
-8.6954193 36 6.1983414 1.6229643e-38
23.791904 36 -22.110008 1.9995578e-38
20.09676 36 -82.453995 1.3836549e-38
-3.9626389 36 -73.736572 0
27.805599 36 -30.274231 1.8987172e-38
11.284248 36 57.307823 1.4295402e-38
-26.539745 36 35.978874 1.4659069e-38
14.470806 36 -72.612534 0
18.538843 36 35.977501 1.558283e-38
-3.5167427 36 -13.910316 1.5031825e-38
-8.960598 36 -40.765976 1.6763316e-38
-16.219936 36 20.573105 1.3924743e-38
15.912003 36 30.07737 1.6137083e-38
11.539255 36 -51.770523 1.419409e-38
-16.523678 36 30.04686 1.4110938e-38
-0.23426437 36 -41.803909 1.7033446e-38
-5.3624268 36 39.708538 1.4569034e-38
6.2057838 36 29.752167 1.6134926e-38
8.3370724 36 -34.01413 1.8256845e-38
-15.191975 36 22.51796 1.8812196e-38
-8.375042 36 -38.981781 1.8622025e-38
14.16309 36 -75.494263 0
-18.780403 36 -81.916718 1.4292467e-38
10.427378 36 -80.593506 1.5955606e-38
21.640556 36 -23.447632 1.7038489e-38
6.7052422 36 -69.265518 0
15.267694 36 -37.297333 0
13.192945 36 -35.145676 1.5020989e-38
-3.1723671 36 -91.265198 1.7340683e-38
14.459732 36 -68.455429 0
24.803448 36 -22.474518 2.0179603e-38
-11.362087 36 30.016701 1.5307322e-38
14.142452 36 -67.615433 0
-20.133133 36 -20.283463 1.4197352e-38
2.3248444 36 -11.272675 2.0007508e-38
1.8124695 36 -41.299896 1.5283171e-38
3.528286 36 5.9043274 1.4386809e-38
12.71468 36 -6.4049149 2.0191534e-38
-1.949749 36 86.444405 2.1637883e-38
-9.634243 36 36.315269 1.5213684e-38
15.377333 36 -36.742462 0
7.2970924 36 66.533463 0
4.4720993 36 8.2560577 1.9181701e-38
-12.648422 36 -39.254379 1.8625967e-38
4.1715336 36 6.0714874 1.5309484e-38
13.284046 36 -51.576141 1.9816225e-38
3.0057964 36 -84.086578 1.6322945e-38
-1.8955803 36 -90.509735 1.3287666e-38
11.302618 36 -10.705666 2.0467742e-38
-16.555279 36 -80.681152 1.6597712e-38
1.7800598 36 4.1352463 1.8904395e-38
-9.0277672 36 -58.289413 0
-1.8313942 36 9.640274 1.6596264e-38
5.1847534 36 29.360237 1.5672868e-38
14.820944 36 -35.960983 1.3272883e-38
6.7639065 36 -33.13913 1.9265599e-38
-10.925838 36 37.760677 1.9548677e-38
0.1371994 36 -35.433563 1.2994476e-38
-8.3636436 36 30.244064 1.5766861e-38
-8.785923 36 -89.038193 1.7895652e-38
-2.7413139 36 -69.513977 1.5305542e-38
-7.1390762 36 2.7786255 1.4846348e-38
-17.207771 36 -60.386047 1.936142e-38
-2.5445595 36 -66.499176 1.6687758e-38
17.119871 36 57.322769 0
11.601183 36 -9.146904 2.0466323e-38
-1.0090866 36 -72.284012 0
-22.160038 36 39.575153 1.447828e-38
4.9641781 36 83.68013 1.7491592e-38
28.128662 36 -28.011017 2.0359677e-38
22.103191 36 35.834721 1.6227839e-38
2.6746712 36 -81.56337 1.7614034e-38
4.437788 36 29.885605 1.5581752e-38
-6.5348282 36 8.1131897 1.8995512e-38
14.845663 36 -74.309082 0
-1.8467216 36 87.905319 2.0991792e-38
-23.559521 36 38.187408 1.8442329e-38
5.3806572 36 -66.411209 1.4844941e-38
13.25329 36 5.9792786 1.9640518e-38
15.522436 36 -22.738045 1.6954198e-38
-11.813255 36 -65.930557 1.3276876e-38
0.78659439 36 -84.769852 1.8628915e-38
6.8055954 36 59.159645 1.3002838e-38
6.611187 36 -71.657486 0
-15.837765 36 -93.057068 1.8626028e-38
9.4488945 36 -92.45903 1.3652509e-38
-1.8031616 36 3.2745514 1.6228927e-38
-2.4937859 36 53.896809 1.3646041e-38
3.0528526 36 -35.434708 1.3736019e-38
-2.6179848 36 -20.63472 1.5851101e-38
-1.5151558 36 86.726608 2.1176186e-38
-2.2911568 36 -76.824539 1.5398825e-38
4.5319633 36 -88.600296 1.8171534e-38
21.584282 36 35.79335 1.6043448e-38
-5.4806252 36 6.1119003 1.5676106e-38
14.776756 36 -52.233673 2.0092801e-38
6.1730785 36 38.166286 1.8815072e-38
0.85562134 36 6.4482498 1.4847787e-38
-4.3712616 36 -64.476166 0
20.752342 36 -87.067474 1.8814391e-38
-5.0950394 36 -88.987503 1.7527234e-38
-0.86138535 36 54.806305 1.6044217e-38
-11.562809 36 -89.051193 1.8169725e-38
-11.470657 36 6.365097 1.945613e-38
5.821373 36 -84.420471 1.5216598e-38
-13.674599 36 37.641815 1.9178464e-38
9.481184 36 9.2627716 1.5767948e-38
-1.8739319 36 -15.308861 1.9272824e-38
-6.0178947 36 37.615425 1.9364286e-38
9.0479565 36 35.838875 1.4848858e-38
0.15638733 36 -60.45285 1.9084844e-38
4.2424774 36 -1.5011139 1.4663399e-38
-17.431839 36 -20.352005 1.6037295e-38
-22.354736 36 -84.538589 1.9178838e-38
-17.919586 36 37.70879 1.917738e-38
7.5558872 36 -35.802643 1.5680058e-38
-12.533482 36 -17.280289 1.558136e-38
-7.5223503 36 -84.339966 1.7797347e-38
-15.270672 36 60.175064 0
-6.9543877 36 29.988358 1.5029296e-38
-10.531967 36 20.736481 1.3928343e-38
12.550678 36 -36.424698 1.1808191e-38
9.7449856 36 2.3811646 1.6321475e-38
11.454496 36 -93.447144 1.8352328e-38
-21.007793 36 37.684906 1.8993705e-38
-19.903797 36 39.46143 1.4661953e-38
28.976311 36 -20.401237 1.6573923e-38
-19.352337 36 -19.014511 1.6783507e-38
-1.2220764 36 -66.418762 0
-14.359585 36 -38.247391 1.3652118e-38
8.5903454 36 -90.485474 1.291926e-38
-19.240532 36 -93.175934 1.8442715e-38
17.199411 36 -54.549301 1.953855e-38
-0.072372437 36 22.313141 1.890655e-38
11.65621 36 36.190121 1.5400238e-38
18.12174 36 -54.318314 1.944923e-38
13.915558 36 -88.717575 1.8079341e-38
-10.167 36 -86.288651 1.9364672e-38
-22.287579 36 -61.151535 1.9270303e-38
-2.8512993 36 -72.301453 1.5306621e-38
-1.2771606 36 -54.922897 1.7859653e-38
-6.7211037 36 23.696007 1.4480075e-38
-10.120014 36 -38.303833 1.4845974e-38
19.250111 36 58.662151 2.0283376e-38
20.139332 36 35.684212 1.5490634e-38
-4.4272079 36 -15.665565 1.9731635e-38
16.732721 36 37.342793 1.9457566e-38
-8.805584 36 23.790863 1.4295329e-38
-7.7156067 36 -20.515175 1.5575602e-38
-9.5953941 36 -17.344193 1.5489167e-38
1.6063499 36 85.758621 2.2830661e-38
7.3420467 36 67.796577 0
-11.91642 36 -77.377136 1.36471e-38
-2.6787834 36 -78.086685 1.5583573e-38
-4.7365265 36 -91.144653 1.2639425e-38
19.890545 36 59.167343 2.0374849e-38
20.164335 36 37.302216 1.954904e-38
10.503719 36 -82.001373 1.7799519e-38
-2.8025475 36 -41.160568 1.6666099e-38
9.2261047 36 23.954453 1.4298921e-38
9.028307 36 -57.60231 1.8887069e-38
-15.35384 36 -91.348755 1.3191162e-38
18.506701 36 -60.695023 1.9363226e-38
13.955103 36 -74.101013 0
1.7389908 36 38.049496 1.8628879e-38
-0.024494171 36 8.3688354 1.9088063e-38
0.76585388 36 -9.0248718 2.0282297e-38
0.86244202 36 -86.136322 1.8720755e-38
-16.744999 36 -37.698868 1.7518926e-38
6.8571987 36 -78.024246 1.2171628e-38
-1.0705299 36 36.068359 1.6410433e-38
0.64286804 36 -92.134903 1.2822029e-38
-15.374928 36 -91.355347 1.3191162e-38
-3.3471069 36 8.1728134 1.9456846e-38
2.4528275 36 -69.291962 1.7982101e-38
14.851803 36 36.131317 1.6137087e-38
-3.2070847 36 21.923164 1.8814712e-38
5.0786171 36 -63.658066 1.6691362e-38
-4.2266769 36 -41.47998 1.6481708e-38
5.007267 36 -14.392677 1.6599856e-38
8.0746746 36 -60.680191 1.9362877e-38
9.0680447 36 8.026123 1.6783898e-38
15.501619 36 -65.74234 1.5030399e-38
-5.3971939 36 -11.147903 1.9639086e-38
1.4844398 36 -55.524445 1.7956875e-38
-6.2807808 36 52.095055 1.9636568e-38
18.556593 36 22.151955 1.9731637e-38
-5.6929626 36 -68.006042 1.4569772e-38
-3.7409058 36 -85.292908 1.8627473e-38
-4.4812889 36 92.458221 1.7239127e-38
23.079676 36 -79.832855 1.9089539e-38
24.940025 36 37.743656 1.9823463e-38
-5.2223015 36 1.2248993 1.8810404e-38
11.719978 36 -83.892578 1.4663427e-38
-3.7146072 36 4.3544922 1.8995512e-38
-5.6329346 36 -77.517227 1.5767245e-38
-8.2400703 36 21.985489 1.7987109e-38
-10.040226 36 -93.472458 1.7431085e-38
2.8924828 36 37.433285 1.816934e-38
-17.616356 36 66.012047 1.7884143e-38
15.66696 36 -71.290497 1.4572307e-38
-17.779301 36 -92.045059 1.3833652e-38
-10.415859 36 37.988922 1.9179894e-38
11.567408 36 -84.423798 1.5769774e-38
-10.708027 36 -35.173706 1.2259439e-38
20.891754 36 -84.886871 1.8997343e-38
7.0656071 36 -8.2723694 1.6964297e-38
-18.296307 36 61.945961 2.0373037e-38
-2.3285904 36 -64.969528 1.6503007e-38
-13.281532 36 -70.168076 1.2077613e-38
-18.076706 36 58.246986 1.954329e-38
18.422297 36 -81.534012 1.6787172e-38
-3.3345947 36 75.538895 2.1565839e-38
6.4333248 36 7.6930389 1.8905114e-38
2.4676895 36 -72.855682 1.6783921e-38
13.694168 36 37.828316 1.8905828e-38
15.720266 36 -77.66391 1.5033294e-38
30.663919 36 -12.594429 1.8329926e-38
24.338011 36 -62.064209 1.9641258e-38
-19.313885 36 -18.450455 1.7612543e-38
-15.039406 36 38.366741 1.8625287e-38
5.0019741 36 63.092712 0
2.444664 36 -54.837814 1.8601876e-38
5.2203636 36 -72.703796 1.6323668e-38
15.267258 36 67.150902 0
-4.5319214 36 -2.7334061 1.9362502e-38
-13.123943 36 -76.079315 0
14.182344 36 -17.13559 1.6498288e-38
23.57342 36 37.10247 1.991638e-38
-1.5497856 36 2.6995926 1.5766869e-38
0.021183014 36 -20.401466 1.5945464e-38
2.8318558 36 22.390038 1.8536328e-38
2.2736435 36 -21.008827 1.6771979e-38
-18.64986 36 30.625816 1.4849222e-38
-7.7532806 36 23.850647 1.4940697e-38
0.57396698 36 74.817139 1.9359276e-38
1.592186 36 -76.6427 1.5029693e-38
-6.8908195 36 -17.126656 1.5032156e-38
-10.274158 36 -88.067032 1.8445592e-38
-10.953758 36 51.729996 2.1017696e-38
4.6240959 36 -17.566177 1.6227825e-38
-15.610466 36 -18.934586 1.7703304e-38
-18.463928 36 -83.860382 1.8533831e-38
6.8845387 36 51.577061 2.0183981e-38
-2.2753563 36 23.796104 1.6231076e-38
3.7937622 36 -70.098038 0
3.1195812 36 -13.83036 1.475524e-38
-10.737732 36 9.7462692 1.4571197e-38
-6.8883591 36 -85.278809 1.927284e-38
-22.543488 36 -20.442879 1.5211141e-38
-10.759293 36 -45.867722 2.0446126e-38
22.974968 36 20.495628 2.0559236e-38
18.293215 36 39.135113 1.5769019e-38
-2.5496445 36 37.566021 1.9179903e-38
10.550699 36 -85.802856 1.9181733e-38
-13.304264 36 -92.980011 1.8073209e-38
15.178328 36 21.581909 1.954653e-38
0.31272507 36 0.22429657 1.9456846e-38
8.5860577 36 -54.447891 2.0453294e-38
9.1997643 36 27.491554 2.046704e-38
7.7491875 36 6.3191376 1.4940702e-38
7.9429474 36 -93.584641 1.8259051e-38
-13.475124 36 34.918106 2.0373407e-38
-12.053612 36 -13.698036 1.9914597e-38
-0.72187805 36 -88.441345 1.8263007e-38
-10.931873 36 22.645615 1.7985311e-38
-27.752533 36 38.37429 1.8902226e-38
17.821795 36 65.915154 0
18.064493 36 -93.495804 1.7523652e-38
19.751823 36 -88.723114 1.7804198e-38
-18.891521 36 62.145687 2.0557065e-38
4.7954235 36 -68.470703 1.5123323e-38
1.8232536 36 51.790627 1.9541855e-38
7.8875961 36 -88.929031 1.8356644e-38
-8.4212646 36 51.265659 2.1108091e-38
-28.203678 36 38.884914 1.8902226e-38
12.788195 36 -59.116959 1.5766509e-38
20.186268 36 37.728649 1.936393e-38
7.9375057 36 -21.39473 1.907939e-38
14.818705 36 -41.906067 1.9435587e-38
8.0283012 36 -76.933914 1.6875765e-38
-9.51157 36 -76.014999 0
16.347494 36 -33.837997 1.7786128e-38
-15.041622 36 -87.780624 1.8538861e-38
-1.2374573 36 4.0820084 1.8904395e-38
-11.88694 36 -74.617996 1.3093926e-38
7.2651024 36 90.111237 2.0647483e-38
19.217453 36 -39.036499 1.8526964e-38
-19.090919 36 -88.430405 1.7802017e-38
-18.70731 36 -74.679169 1.383114e-38
11.361931 36 8.0820236 1.9455048e-38
-3.5029259 36 -35.200562 1.3452939e-38
5.7186604 36 22.176414 1.872072e-38
-15.257557 36 -88.609207 1.7435027e-38
1.8866959 36 1.14048 1.9362855e-38
13.093258 36 20.255295 1.6688817e-38
9.4264183 36 32.142113 2.0558876e-38
22.547077 36 -15.911354 1.7979904e-38
8.4314003 36 20.327042 1.5676106e-38
11.342836 36 3.7499084 1.9548685e-38
-18.452503 36 -46.17363 1.4909007e-38
-17.729019 36 30.350929 1.4756308e-38
5.1317501 36 -75.301559 1.4940735e-38
-8.2982712 36 -15.423119 1.9547243e-38
0.72930145 36 -18.646172 1.843943e-38
-11.970875 36 -85.710449 1.8901899e-38
11.741302 36 20.368362 1.6227836e-38
-2.2086983 36 -37.431213 1.6971161e-38
9.4328613 36 -88.665176 1.7804193e-38
9.9737072 36 37.846268 1.8077863e-38
-22.362305 36 20.633499 1.9453969e-38
8.2214985 36 -20.718796 1.6873556e-38
15.743532 36 33.835423 2.0651432e-38
-15.277737 36 -70.09082 1.6503723e-38
5.7087517 36 -11.368248 1.5582453e-38
2.7966919 36 -17.658012 1.5487009e-38
22.627514 36 -27.331528 1.9905177e-38
11.321619 36 -13.422028 1.6778461e-38
17.032398 36 66.890251 0
-13.684814 36 -73.364487 0
-10.38887 36 -75.780762 0
-0.55927277 36 -71.075195 1.2631515e-38
17.632442 36 -93.701202 1.7523652e-38
18.273756 36 -64.398132 1.6597371e-38
17.084986 36 7.9458542 2.0099698e-38
19.066778 36 61.65844 1.8808613e-38
-24.826336 36 34.76363 1.9453241e-38
1.7271042 36 68.521271 0
-9.7564201 36 4.1672821 1.9179903e-38
-15.455322 36 -66.95871 1.5673243e-38
-19.027985 36 -55.230072 1.9261933e-38
3.8390293 36 -78.564621 1.1893239e-38
-14.945854 36 51.687424 2.0098611e-38
-8.3999825 36 76.065826 2.1381797e-38
22.358494 36 38.875011 1.6781373e-38
7.5373878 36 25.199623 1.9551195e-38
-9.3560638 36 -0.62234497 1.9730921e-38
-7.895977 36 -72.141663 1.3921892e-38
-2.9370766 36 -63.233627 1.5304815e-38
20.062984 36 -75.590179 1.5031127e-38
1.6600761 36 40.690559 2.0100053e-38
-1.2429047 36 38.011074 1.871856e-38
-21.13501 36 34.887432 1.9269573e-38
-21.750374 36 28.537109 1.9729831e-38
30.214205 36 -23.437729 1.7495514e-38
4.1287117 36 -53.176254 1.8969562e-38
11.468424 36 -22.744576 2.0183544e-38
11.117096 36 -0.60445404 1.9823111e-38
-18.820866 36 -70.906342 1.4291036e-38
-0.86096191 36 -3.0116882 1.9822765e-38
14.019491 36 -91.448563 1.7803105e-38
-12.913372 36 -32.617783 2.0168443e-38
-20.222694 36 31.60627 1.8997305e-38
29.605844 36 38.819645 2.0375195e-38
9.7805767 36 22.27771 1.8628524e-38
25.187843 36 -84.08992 1.881511e-38
-12.562611 36 -20.539062 1.6864899e-38
16.882915 36 -68.278824 1.3369082e-38
8.4720364 36 -74.08905 1.6139278e-38
3.3923073 36 28.287781 1.9821311e-38
-9.7054939 36 -74.676956 0
2.8100471 36 34.095272 2.0098258e-38
9.2500668 36 -80.962891 1.7245626e-38
14.566936 36 -42.671249 1.9343389e-38
-13.82687 36 -65.463226 0
-18.833691 36 -21.634338 1.925801e-38
5.1317177 36 -65.976456 1.5491027e-38
4.394598 36 43.990112 2.0558876e-38
-20.461685 36 -26.386024 1.9338322e-38
30.495478 36 -23.110733 1.7956492e-38
-12.817371 36 75.7761 2.0647131e-38
7.6919346 36 10.780724 1.9731282e-38
-5.258709 36 -52.323471 1.6838298e-38
0.30353546 36 -69.131073 1.4936763e-38
1.3760529 36 0.80278778 1.9640521e-38
9.8327007 36 -75.661285 1.743038e-38
-18.075989 36 -56.495377 2.0360743e-38
6.503149 36 1.1564941 1.9270659e-38
17.771816 36 -25.160889 2.0181045e-38
-16.417896 36 68.166328 0
-2.7741661 36 52.203304 1.8807167e-38
17.751209 36 21.537811 1.9730921e-38
5.7390499 36 31.415703 2.0190455e-38
20.018335 36 -71.517929 1.4571581e-38
18.742813 36 -41.54097 1.8512191e-38
-4.5383453 36 -75.927063 0
1.4109802 36 -75.646149 1.5122241e-38
1.6260529 36 -75.475006 1.5215519e-38
-8.7015114 36 -33.292618 1.8977461e-38
-13.060108 36 -68.433411 0
-2.0999146 36 -73.37616 1.4476861e-38
-19.000057 36 -66.163681 1.4014804e-38
-0.87160492 36 31.460007 2.028409e-38
0.091396332 36 -65.08815 1.5028601e-38
9.1403675 36 -60.815918 1.8440918e-38
2.4191322 36 20.493279 1.5399882e-38
-16.738461 36 -66.938644 1.6503723e-38
-14.966133 36 40.791519 1.9179894e-38
-18.734592 36 26.432274 1.9546879e-38
-22.322796 36 25.381943 1.8904392e-38
-19.020065 36 25.581787 1.9363207e-38
-9.2992096 36 -66.475113 1.2169809e-38
4.6169071 36 -33.661911 1.8713507e-38
2.4647179 36 -63.336441 1.7059057e-38
-14.940147 36 -85.569366 1.8073932e-38
25.156483 36 24.606682 2.0006062e-38
7.0044022 36 -17.675323 1.4477561e-38
-10.03289 36 31.538879 1.9641235e-38
-15.905525 36 -70.613113 1.6411171e-38
11.949198 36 -64.263718 1.8073934e-38
1.9877129 36 -2.955986 1.9638734e-38
3.1260509 36 -82.823715 1.5125481e-38
-6.15411 36 -19.357208 1.8253957e-38
9.1011982 36 4.3909149 1.9180979e-38
-9.1692963 36 75.325462 2.0919751e-38
-6.4625931 36 -68.309677 1.549101e-38
9.7344494 36 -89.222778 1.7989304e-38
31.807114 36 -29.512733 1.6665411e-38
10.584984 36 34.550282 1.9639077e-38
28.802053 36 -49.584732 1.8520092e-38
-20.033772 36 -43.237701 1.4819683e-38
17.12952 36 58.218815 0
7.4835052 36 -85.828461 1.8721111e-38
-7.0753632 36 11.934845 2.0008224e-38
1.8573151 36 -0.91133118 1.5586068e-38
0.81798935 36 -81.350235 1.3831502e-38
4.7555027 36 -85.840378 1.8628915e-38
9.933897 36 -17.529884 1.6779554e-38
18.082527 36 -74.340347 1.6598813e-38
15.970844 36 11.161369 1.9917105e-38
18.704245 36 24.749077 1.9643031e-38
-23.349922 36 -17.223709 2.0188989e-38
-18.615967 36 -15.527328 1.8444847e-38
-15.269482 36 -15.648209 1.890511e-38
-6.7558594 36 34.128979 2.0190809e-38
-18.159531 36 28.674377 1.9270292e-38
19.514061 36 -16.000908 1.7235503e-38
1.152935 36 -69.133575 1.4938203e-38
-2.6947556 36 34.985828 1.9914947e-38
-3.9183197 36 41.190029 1.9362491e-38
6.9472275 36 -30.893631 1.8242779e-38
-16.125134 36 -66.949234 1.7056178e-38
-17.800552 36 70.037277 1.9453618e-38
-2.9722366 36 -65.331909 1.622642e-38
10.481985 36 -87.243652 1.8446326e-38
-18.504154 36 -65.083206 1.3740738e-38
-6.853035 36 4.8561707 1.7613653e-38
20.312359 36 -14.97477 1.7691425e-38
25.058941 36 -12.009102 1.9160405e-38
-0.49817657 36 28.629616 2.0007141e-38
-13.595417 36 56.186356 0
6.2623997 36 4.7414017 1.8351218e-38
10.22019 36 -73.762054 1.6692452e-38
-10.915314 36 37.762688 1.9548677e-38
-8.1136703 36 0.44083405 2.0007868e-38
-13.78083 36 18.735771 2.0190455e-38
-1.9073181 36 -88.281509 1.7526521e-38
-5.3772011 36 22.516441 1.8076065e-38
16.526674 36 -85.94632 1.8630717e-38
-0.5616188 36 32.374382 2.0282289e-38
-18.542358 36 -78.382187 1.3831135e-38
20.182327 36 -19.131691 1.6694212e-38
7.9853058 36 -68.192886 1.5953081e-38
-1.4798241 36 27.411591 2.0007138e-38
-8.7577782 36 -41.087372 1.6946268e-38
23.683491 36 34.360172 2.0007491e-38
17.456818 36 31.394249 1.9825624e-38
11.323509 36 51.108921 2.0738588e-38
-17.533913 36 70.556099 1.7425323e-38
-5.215004 36 50.420071 2.0282649e-38
24.287312 36 40.730476 2.0191532e-38
15.609646 36 38.883659 1.5585707e-38
-1.6895103 36 51.879818 1.9820232e-38
-13.347004 36 -42.858551 2.072954e-38
16.346605 36 -17.726097 1.9078683e-38
19.018145 36 54.997887 2.0465603e-38
-8.97575 36 -85.62793 1.8719666e-38
-0.32784653 36 25.104729 2.0007854e-38
14.321814 36 -59.699539 1.7702626e-38
5.9023552 36 -27.412918 1.9527044e-38
-12.36322 36 11.22509 1.8998024e-38
23.83672 36 19.170395 2.0834381e-38
4.3960896 36 10.93103 1.9823833e-38
19.79845 36 -14.054001 1.9252978e-38
12.659758 36 -77.546768 1.4573395e-38
12.044661 36 -37.419144 0
-7.7410698 36 -55.181641 1.6195087e-38
-2.249115 36 -12.490486 1.9271738e-38
-12.153774 36 -68.348251 1.336835e-38
15.786373 36 -43.929001 1.9067159e-38
11.7397 36 0.50630188 2.0284807e-38
-17.268234 36 -49.537689 1.4909004e-38
-9.3529854 36 27.413612 2.0006062e-38
-15.378578 36 25.22863 1.9638359e-38
-6.8507042 36 -72.881027 0
20.951252 36 27.914452 2.0374849e-38
3.473175 36 0.1272583 1.936537e-38
-21.648396 36 22.242493 1.9270656e-38
22.202585 36 59.933407 2.0742175e-38
24.054745 36 27.744934 2.0651433e-38
-27.791702 36 34.648933 1.9268853e-38
-15.61771 36 -73.3638 1.668848e-38
6.3963909 36 67.746933 0
19.815601 36 -79.467224 1.4296085e-38
13.998369 36 69.679878 0
-9.266037 36 -35.673111 1.1803514e-38
8.9626389 36 21.886841 1.8998025e-38
-20.274216 36 -76.352493 1.8994095e-38
24.729542 36 40.397049 2.0007138e-38
8.6242657 36 -11.460693 1.6505131e-38
7.1025734 36 -22.377892 2.0089565e-38
-8.103157 36 75.246284 1.9997441e-38
-0.94213104 36 42.172253 2.0282999e-38
17.158293 36 28.461327 2.0099338e-38
-2.9038048 36 39.350567 1.5122931e-38
-15.365246 36 -74.374893 1.6504088e-38
17.945478 36 -66.913116 1.6597008e-38
7.8751011 36 37.261848 1.8447724e-38
-16.595001 36 26.732529 2.0190809e-38
13.97637 36 31.762413 2.0285163e-38
31.977699 36 -22.235573 1.9987303e-38
7.149128 36 83.517761 2.036512e-38
19.839729 36 -41.691971 1.9063927e-38
-21.201954 36 -45.040237 1.842499e-38
-31.703224 36 -85.300659 1.881005e-38
-18.065536 36 19.230156 1.9454683e-38
-15.099945 36 -42.048401 1.9533166e-38
-16.494377 36 -73.645508 1.6227501e-38
-15.080204 36 -64.160721 1.567289e-38
-15.293468 36 -77.281036 1.5121874e-38
-3.2344398 36 18.009735 1.9914591e-38
1.3423729 36 -67.633774 1.4937483e-38
-17.184921 36 31.705696 1.9089501e-38
1.6485863 36 31.637756 2.046704e-38
14.718342 36 51.180634 1.806922e-38
-16.272091 36 -55.041367 1.5094826e-38
-1.9670372 36 -18.660965 1.7980255e-38
-9.4254074 36 -52.335114 1.4167134e-38
-11.11488 36 -15.923225 1.9547229e-38
16.888784 36 -75.948624 1.3004627e-38
23.531372 36 31.247047 1.8816151e-38
6.8950615 36 -29.918877 1.9345519e-38
2.5568352 36 67.536469 0
-22.474628 36 -32.207733 1.9260861e-38
19.64922 36 -12.669846 1.9711054e-38
-6.9254189 36 31.751595 1.9917103e-38
17.895126 36 68.452499 0
-10.344524 36 -72.638184 0
18.725563 36 -69.918365 1.6323298e-38
8.9544086 36 -77.183487 1.6783569e-38
-12.573753 36 44.363396 2.0557797e-38
20.203625 36 -80.472122 1.4389003e-38
22.313862 36 32.335022 1.9733784e-38
6.429491 36 41.508446 2.000822e-38
-20.969349 36 -45.334183 1.7687069e-38
10.242468 36 50.445034 2.1017696e-38
-20.215435 36 29.451279 1.6135644e-38
10.471321 36 -34.280334 1.7791897e-38
26.381683 36 -87.314026 1.8632516e-38
8.5250015 36 -65.646713 1.6782116e-38
1.573761 36 -69.305969 1.5123317e-38
-16.116955 36 -71.328979 1.6134584e-38
18.618231 36 21.688011 1.9730921e-38
-19.554691 36 34.404881 1.9454683e-38
-25.868317 36 27.659218 2.0096453e-38
-13.086021 36 -86.523895 1.899589e-38
9.0660801 36 28.334763 2.0467042e-38
9.883255 36 19.074455 1.9822747e-38
-3.4163933 36 51.462627 2.0465603e-38
7.387022 36 34.561543 1.9455046e-38
6.9509869 36 28.320007 2.0190093e-38
-8.8721657 36 -50.929977 1.4998337e-38
10.802902 36 -75.168518 1.5494272e-38
13.030411 36 10.955948 1.9732712e-38
-20.405487 36 -33.333038 1.7411936e-38
-14.496002 36 28.277985 1.963872e-38
7.0988827 36 21.818718 1.8721439e-38
-7.3403168 36 -56.166031 1.6473118e-38
-14.068352 36 -15.030647 1.9730916e-38
-12.561314 36 31.497681 1.9088062e-38
-17.567989 36 21.932961 1.8810756e-38
12.697721 36 -29.61264 1.9251159e-38
-20.455421 36 -68.757965 1.9361434e-38
-1.2812843 36 -19.159683 1.8164649e-38
-13.584206 36 20.87088 1.4571916e-38
-17.97781 36 34.267445 1.9270292e-38
17.801605 36 18.912613 1.9914945e-38
3.7365532 36 -21.513809 1.9538571e-38
27.554596 36 -11.963249 2.1738286e-38
-3.9440269 36 31.529915 1.954904e-38
-9.7532043 36 28.694557 1.982275e-38
9.8907833 36 -66.784225 1.8073578e-38
5.7205982 36 -2.7987595 1.9639089e-38
4.2139111 36 78.901794 2.1843848e-38
25.271072 36 -21.424118 1.9537115e-38
6.8485889 36 34.160114 2.0376643e-38
28.0009 36 27.001595 2.0375198e-38
1.059269 36 19.230392 1.9362855e-38
15.143166 36 18.968742 1.9914943e-38
5.0806541 36 -23.035378 1.7239456e-38
-8.7396889 36 -74.865646 0
1.9418221 36 -4.6721649 1.9822046e-38
-1.54673 36 -34.014771 1.8795228e-38
20.080935 36 68.427803 2.0925848e-38
20.966393 36 -35.296539 1.9345171e-38
-21.391888 36 -75.965454 1.9453991e-38
-20.536724 36 -72.591782 1.9086288e-38
-3.0267296 36 -75.704224 1.447758e-38
-18.023506 36 -88.688248 1.7526867e-38
12.509003 36 23.577126 1.5495666e-38
-8.957325 36 -26.571579 1.8512159e-38
0.81859207 36 26.535606 2.0467396e-38
13.454262 36 -85.992645 1.8444168e-38
8.8852673 36 -65.676331 1.7150898e-38
-10.596928 36 34.609032 1.9913504e-38
19.575035 36 67.957275 2.000426e-38
-15.002396 36 31.663254 1.8997661e-38
-18.055199 36 -53.967453 1.8332438e-38
27.384548 36 37.010139 1.9823463e-38
-19.930065 36 -54.255905 1.9355201e-38
6.0473671 36 -53.119156 2.0172768e-38
-13.85778 36 30.432678 1.5861936e-38
-5.0595894 36 -44.043427 1.7045666e-38
19.891083 36 67.893356 2.0649624e-38
9.7455673 36 -59.028763 1.6319317e-38
23.692562 36 -50.359528 1.8704836e-38
7.06674 36 -28.14669 1.9804707e-38
18.359928 36 -48.893494 1.906751e-38
12.413769 36 -26.512825 2.0269262e-38
26.831608 36 -41.34845 1.9439175e-38
-15.539253 36 44.440525 2.0373037e-38
24.526455 36 25.79155 2.0375921e-38
12.503962 36 39.09264 1.5586786e-38
-22.471836 36 -29.880714 1.8420679e-38
-10.753773 36 32.349014 1.9547242e-38
6.0813923 36 49.459053 2.0741822e-38
-4.1101036 36 28.605614 1.9546879e-38
-11.220459 36 -18.60379 1.8067761e-38
3.3324413 36 -74.132721 0
21.957401 36 -10.013069 2.0641279e-38
-12.298733 36 40.973976 1.9362133e-38
-10.111801 36 50.422848 2.0648185e-38
-16.784901 36 -26.957863 2.0263153e-38
27.955425 36 -62.648727 1.7888801e-38
0.1570549 36 -88.832031 1.7434322e-38
26.400467 36 -42.115219 2.036005e-38
-18.635193 36 -53.925369 1.971896e-38
12.669207 36 -66.609955 1.5676491e-38
-3.1047516 36 11.416847 1.9362852e-38
-23.110512 36 -26.597046 1.8698708e-38
14.738287 36 75.501877 2.0558181e-38
-29.164436 36 -35.151306 1.8055851e-38
-14.952332 36 5.8703537 2.000535e-38
-35 12.385839 67.094696 0
-35 8.9723186 79.870926 0
-35 -16.13892 61.252247 0
-35 17.746181 78.824585 0
-35 -15.884033 49.908108 1.8998374e-38
-35 14.187485 69.511208 1.9087005e-38
-35 10.932581 74.34668 1.8995554e-38
-35 24.587635 48.141869 2.0557065e-38
-35 14.097315 69.447006 1.8350165e-38
-35 12.513914 61.00209 0
-35 -3.3947334 72.214905 1.7890296e-38
-35 -14.646553 78.650574 0
-35 -2.5051193 67.876465 1.4111011e-38
-35 6.0086384 72.689522 1.7798095e-38
-35 -9.2258492 78.56395 1.5491762e-38
-35 13.869547 72.591766 0
-35 -10.262001 67.770386 1.4480864e-38
-35 5.983429 72.342888 1.7889568e-38
-35 -5.308403 74.092079 0
-35 12.253069 78.963501 1.8994455e-38
-35 -6.1716537 60.135071 0
-35 16.664484 72.464821 1.7797008e-38
-35 9.4797707 45.655827 0
-35 17.134193 61.520092 1.8164717e-38
-35 -13.677925 71.914566 1.5585062e-38
-35 2.294075 64.778618 1.8070706e-38
-35 8.9561424 71.0896 0
-35 -7.0570335 72.172096 1.687579e-38
-35 2.830677 72.30864 1.7706621e-38
-35 -28.073837 -82.563782 0
-35 -4.5010605 64.01561 1.5213732e-38
-35 -14.868572 66.015335 0
-35 5.8004017 61.450268 1.899121e-38
-35 -13.903728 74.836288 1.8351972e-38
-35 17.6453 68.800034 0
-35 18.293045 68.944855 0
-35 -12.083176 42.807144 0
-35 15.428318 63.111797 0
-35 -7.9888535 61.206158 1.7889186e-38
-35 -11.789799 63.960365 1.6693542e-38
-35 -14.797791 65.039543 1.6782515e-38
-35 8.614315 61.305878 1.834586e-38
-35 -12.692158 73.726173 1.3095747e-38
-35 0.083042145 72.50602 1.7703741e-38
-35 -0.15213394 61.371593 1.7517886e-38
-35 -0.59815979 75.602882 1.7888482e-38
-35 18.038635 47.901352 0
-35 16.542063 44.7267 0
-35 -5.0362167 38.310291 0
-35 9.6024055 66.894562 1.7427859e-38
-35 -5.0551872 63.949783 1.2724806e-38
-35 4.3721046 59.983959 0
-35 -7.6507301 46.247471 0
-35 14.156425 61.886932 0
-35 -19.664116 -68.857697 1.9454695e-38
-35 -13.400303 73.865318 1.4663069e-38
-35 -11.464344 38.691395 0
-35 -1.0864143 46.007767 0
-35 -13.7855 36.040363 0
-35 -7.4006424 35.665649 0
-35 3.0575867 61.751057 1.8532035e-38
-35 -2.140152 62.934746 0
-35 1.9672241 68.755684 0
-35 -10.989643 74.41291 1.7061233e-38
-35 6.4658833 46.846024 1.5778001e-38
-35 15.042759 65.286331 1.6597018e-38
-35 -23.259018 -68.075729 0
-35 14.632862 62.692108 0
-35 -8.6486435 64.517059 1.4203536e-38
-35 -25.060047 37.356571 1.3738917e-38
-35 -7.7105331 75.383041 1.5217322e-38
-35 18.609428 59.547089 0
-35 27.143517 56.612156 0
-35 -17.583767 35.828411 0
-35 5.876749 69.155312 1.5124425e-38
-35 1.8260231 34.693783 0
-35 14.966351 36.613327 0
-35 -0.9161377 64.669678 1.4756358e-38
-35 -9.6826477 62.635101 0
-35 -6.7274628 63.867775 0
-35 -5.1294556 78.484871 1.5031503e-38
-35 -10.889332 55.318584 2.0650332e-38
-35 -11.973927 -54.104874 0
-35 -2.1114769 51.909664 0
-35 -29.904892 52.097843 0
-35 -28.996162 88.841171 0
-35 1.2733078 59.969608 0
-35 -5.0486221 76.234085 1.7429664e-38
-35 -27.12804 52.25555 1.4767801e-38
-35 -23.372967 -82.251373 1.5026795e-38
-35 -7.111187 77.365509 0
-35 -4.9020195 49.250248 1.8625639e-38
-35 0.89015198 35.90992 1.2910236e-38
-35 -2.169899 78.086235 0
-35 17.0585 -90.536087 0
-35 7.3181 80.584671 0
-35 -23.69643 81.339447 1.794609e-38
-35 -22.841648 29.665321 1.2527366e-38
-35 7.3300076 59.951195 0
-35 -23.949123 36.107395 0
-35 7.8751411 36.503044 1.3002413e-38
-35 -8.8208694 73.587883 0
-35 5.2611694 37.97197 0
-35 -16.312428 -64.198563 1.8893968e-38
-35 12.266624 32.913086 2.0559226e-38
-35 -5.5870667 62.43203 1.7152706e-38
-35 14.319267 80.707062 0
-35 -17.989063 -66.617798 1.4193789e-38
-35 17.343468 -90.609314 0
-35 -1.8025627 73.769142 0
-35 -15.368191 38.048595 1.8534888e-38
-35 -7.4181633 52.700771 0
-35 -1.4611473 59.944767 0
-35 12.258114 42.042271 2.1295349e-38
-35 30.801456 54.045654 0
-35 12.130789 37.039707 0
-35 -22.135349 -81.366592 0
-35 11.308941 51.32452 0
-35 16.05867 33.645782 0
-35 -10.896049 45.63261 1.9734504e-38
-35 5.0323009 48.160194 0
-35 -2.6873207 61.074768 1.6873595e-38
-35 -10.117424 71.941856 1.7338207e-38
-35 -15.154156 39.273148 1.4846345e-38
-35 1.4053307 62.526302 0
-35 1.3177376 38.311569 0
-35 -9.43787 -30.415428 0
-35 1.1575356 47.161743 1.3472034e-38
-35 9.4351902 34.148617 0
-35 24.298622 -90.313126 0
-35 5.643837 77.829216 1.7612605e-38
-35 3.5805817 45.807194 0
-35 -28.532585 46.9091 0
-35 15.40176 37.410046 0
-35 3.266861 51.485901 0
-35 5.4257717 78.620865 1.9548708e-38
-35 15.396311 50.845879 0
-35 -31.418175 -81.474716 0
-35 -9.2296257 59.877712 0
-35 -2.6584015 65.716293 0
-35 -8.8930092 41.961063 1.9823819e-38
-35 13.746447 36.777065 1.5770098e-38
-35 0.63362885 55.561531 2.0649978e-38
-35 -26.386715 48.747955 1.5870916e-38
-35 4.090147 35.786751 1.7428893e-38
-35 -18.060635 87.195595 0
-35 7.2582455 32.734802 1.9549027e-38
-35 -24.595848 -83.189484 0
-35 5.4665012 50.277283 1.568473e-38
-35 24.016121 -90.564743 0
-35 23.850349 13.913719 1.3353187e-38
-35 -6.1412125 69.182152 0
-35 -6.944355 -90.320389 0
-35 -17.70681 38.876297 0
-35 4.6415997 70.935539 0
-35 -6.4645844 43.178589 2.0465233e-38
-35 1.9313126 -90.798004 1.4298594e-38
-35 23.970213 56.239334 1.8909053e-38
-35 -18.392864 -72.010818 0
-35 -19.735664 52.569725 0
-35 -7.226387 80.167229 0
-35 -1.6989441 70.617805 0
-35 -28.259773 46.746002 0
-35 -4.7338638 43.178474 2.0282283e-38
-35 7.0632133 37.387001 1.5678604e-38
-35 -10.761749 60.962574 1.7057282e-38
-35 -3.3861771 36.230125 1.9085904e-38
-35 29.752335 56.362675 1.9366075e-38
-35 -3.4457016 75.490273 1.5861615e-38
-35 12.274874 -90.642242 0
-35 -4.5692902 43.351753 2.0282283e-38
-35 8.7514553 37.792831 0
-35 3.8940811 41.115349 2.0190807e-38
-35 -21.113926 -89.430328 0
-35 -5.3420258 74.047707 0
-35 0.83214188 53.595467 2.0285512e-38
-35 -20.516968 53.587902 0
-35 1.4388313 70.827797 0
-35 6.0096836 35.644852 0
-35 -21.789825 51.738728 0
-35 -9.3409348 76.495728 0
-35 -15.919605 40.627098 1.7889164e-38
-35 -10.204643 65.676819 0
-35 -12.32399 76.277206 0
-35 11.943359 -90.923965 0
-35 -7.5690575 39.493217 0
-35 -5.2137451 70.480499 0
-35 10.694435 39.004623 1.9089138e-38
-35 -8.4747276 70.740685 0
-35 -5.5601349 35.932808 1.816359e-38
-35 7.4470978 33.623882 1.9084459e-38
-35 -17.809925 86.2854 1.3637012e-38
-35 5.6911201 34.316692 0
-35 11.641777 53.357998 1.9915299e-38
-35 -2.2221451 73.245056 0
-35 -15.504845 33.461952 2.0557068e-38
-35 13.570745 75.084671 0
-35 -20.492489 -64.988647 1.9817719e-38
-35 15.289822 35.708 0
-35 4.86166 83.099709 2.0742188e-38
-35 12.738447 67.309532 0
-35 -15.921684 53.704109 0
-35 -19.912346 -63.849503 1.8992637e-38
-35 10.781954 39.747463 1.9733428e-38
-35 -12.167698 -64.233948 0
-35 -18.226112 54.935734 1.8999453e-38
-35 -14.90015 44.493977 1.5592902e-38
-35 -4.4352875 34.490345 1.2630052e-38
-35 -10.152996 40.603172 1.9456481e-38
-35 -11.587502 70.631096 0
-35 25.951378 42.38549 0
-35 -12.786652 65.928413 0
-35 -9.9695091 36.483421 1.918061e-38
-35 19.786512 41.426052 2.0834018e-38
-35 29.271357 12.326767 1.795506e-38
-35 -20.238075 40.680992 1.2819835e-38
-35 1.3671722 37.042698 0
-35 -12.211506 49.636116 0
-35 -10.601742 -90.401688 0
-35 -15.695427 45.139561 1.3565316e-38
-35 -21.664417 33.81477 1.8994774e-38
-35 20.570774 53.343498 0
-35 7.1679554 52.141346 0
-35 -27.311981 40.492153 1.2541806e-38
-35 19.669285 42.156174 2.0373759e-38
-35 0.26699066 35.598946 1.57683e-38
-35 -9.8169365 49.464901 0
-35 -21.290756 -34.948868 1.4198791e-38
-35 7.0368729 -90.689606 0
-35 -7.8257179 66.1269 0
-35 -14.107613 63.042847 0
-35 -22.929489 55.472141 1.973486e-38
-35 -2.8240929 32.55925 1.9823103e-38
-35 7.5850468 34.513477 1.7150509e-38
-35 6.1951809 -91.83342 0
-35 2.7823372 -89.76532 0
-35 -19.208946 36.692333 1.5858699e-38
-35 -12.462788 59.981079 0
-35 -17.987427 -61.132065 0
-35 -4.5844498 -68.049347 1.5099528e-38
-35 12.215231 83.07766 2.0466689e-38
-35 -17.674492 43.52219 0
-35 -9.2072487 32.74678 1.9640873e-38
-35 -21.430164 -73.889023 1.4118835e-38
-35 -25.235363 -75.026474 1.2085849e-38
-35 -24.130783 46.659969 0
-35 -13.481045 -89.704086 0
-35 -23.461781 -72.393387 1.3839361e-38
-35 -4.2329254 -35.47229 0
-35 -18.538616 -60.987213 0
-35 -23.563728 50.697773 0
-35 16.763189 -42.591141 2.1092948e-38
-35 5.2523499 -24.847946 1.7572625e-38
-35 -27.783455 30.913757 1.7682778e-38
-35 4.5622501 57.401821 2.0740378e-38
-35 -14.2533 39.778229 1.2541817e-38
-35 22.710392 -39.291565 2.1003991e-38
-35 19.354488 31.536903 2.0191534e-38
-35 -20.70153 -67.439697 1.963836e-38
-35 -4.4921875 -34.424194 0
-35 -12.962147 46.445042 0
-35 -21.623592 36.611122 1.8991912e-38
-35 -0.31150818 -49.551208 1.851363e-38
-35 2.9904251 -92.10408 0
-35 -7.2279205 21.786972 1.7959387e-38
-35 13.492159 52.739723 1.936716e-38
-35 0.48284912 22.222084 2.0814565e-38
-35 18.549789 22.731949 1.7499499e-38
-35 -23.318108 -90.61348 1.9551936e-38
-35 -22.023438 38.638729 1.8166103e-38
-35 4.7422638 33.139748 1.7238737e-38
-35 -25.485241 37.00428 1.5398439e-38
-35 -23.007458 -90.682098 1.973633e-38
-35 -5.6349258 -73.217194 1.9541509e-38
-35 -26.905453 35.651924 1.3182518e-38
-35 -8.7201767 37.987507 1.8627081e-38
-35 -1.5195312 -75.107086 1.4003637e-38
-35 14.837847 -88.223694 1.7063028e-38
-35 -4.1126976 54.152435 1.9273878e-38
-35 -4.2346764 78.441208 0
-35 -5.7443542 -74.496414 1.8991933e-38
-35 -15.23336 73.089249 0
-35 21.170536 -36.101562 2.0088498e-38
-35 3.5148621 76.210068 0
-35 28.568745 -90.022629 1.8353764e-38
-35 9.232111 53.301506 2.0099687e-38
-35 9.1809311 19.571152 2.0552337e-38
-35 -14.338295 46.437668 0
-35 -26.108265 -79.807465 1.9545825e-38
-35 1.4473572 -2.1560135 2.0182501e-38
-35 -0.71185684 -92.664627 1.6325831e-38
-35 10.205584 59.621975 0
-35 -29.374184 -66.212784 0
-35 -2.0791359 -90.447845 0
-35 -17.558437 -82.738556 2.0007519e-38
-35 -27.639271 54.680309 0
-35 0.62503815 52.49995 1.8723221e-38
